ncols         200
nrows         79
xllcorner     399900
yllcorner     5999951
cellsize      1.0
NODATA_value  -9999
107.7 107.8 107.8 107.9 107.9 108.0 108.1 108.1 108.2 108.2 108.3 108.4 108.4 108.5 108.5 108.6 108.7 108.7 108.8 108.8 108.9 109.0 109.0 109.1 109.1 109.2 109.3 109.3 109.4 109.4 109.5 109.6 109.6 109.7 109.7 109.8 109.9 109.9 110.0 110.0 110.1 110.2 110.2 110.3 110.3 110.4 110.5 110.5 110.6 110.6 110.7 110.8 110.8 110.9 110.9 111.0 111.1 111.1 111.2 111.2 111.3 111.4 111.4 111.5 111.5 111.6 111.7 111.7 111.8 111.8 111.9 112.0 112.0 112.1 112.1 112.2 112.3 112.3 112.4 112.4 112.5 112.6 112.6 112.7 112.7 112.8 112.9 112.9 113.0 113.0 113.1 113.2 113.2 113.3 113.3 113.4 113.5 113.5 113.6 113.6 113.7 113.8 113.8 113.9 113.9 114.0 114.1 114.1 114.2 114.2 114.3 114.4 114.4 114.5 114.5 114.6 114.7 114.7 114.8 114.8 114.9 115.0 115.0 115.1 115.1 115.2 115.3 115.3 115.4 115.4 115.5 115.6 115.6 115.7 115.7 115.8 115.9 115.9 116.0 116.0 116.1 116.2 116.2 116.3 116.3 116.4 116.5 116.5 116.6 116.6 116.7 116.8 116.8 116.9 116.9 117.0 117.1 117.1 117.2 117.2 117.3 117.4 117.4 117.5 117.5 117.6 117.7 117.7 117.8 117.8 117.9 118.0 118.0 118.1 118.1 118.2 118.3 118.3 118.4 118.4 118.5 118.6 118.6 118.7 118.7 118.8 118.9 118.9 119.0 119.0 119.1 119.2 119.2 119.3 119.3 119.4 119.5 119.5 119.6 119.6
107.8 107.9 107.9 108.0 108.0 108.1 108.2 108.2 108.3 108.3 108.4 108.5 108.5 108.6 108.6 108.7 108.8 108.8 108.9 109.0 109.0 109.1 109.1 109.2 109.2 109.3 109.4 109.4 109.5 109.5 109.6 109.7 109.7 109.8 109.8 109.9 110.0 110.0 110.1 110.1 110.2 110.3 110.3 110.4 110.5 110.5 110.6 110.6 110.7 110.8 110.8 110.9 110.9 111.0 111.0 111.1 111.2 111.2 111.3 111.3 111.4 111.5 111.5 111.6 111.6 111.7 111.8 111.8 111.9 112.0 112.0 112.1 112.1 112.2 112.2 112.3 112.4 112.4 112.5 112.5 112.6 112.7 112.7 112.8 112.8 112.9 113.0 113.0 113.1 113.1 113.2 113.3 113.3 113.4 113.5 113.5 113.6 113.6 113.7 113.8 113.8 113.9 113.9 114.0 114.0 114.1 114.2 114.2 114.3 114.3 114.4 114.5 114.5 114.6 114.6 114.7 114.8 114.8 114.9 115.0 115.0 115.1 115.1 115.2 115.2 115.3 115.4 115.4 115.5 115.5 115.6 115.7 115.7 115.8 115.8 115.9 116.0 116.0 116.1 116.1 116.2 116.3 116.3 116.4 116.5 116.5 116.6 116.6 116.7 116.8 116.8 116.9 116.9 117.0 117.0 117.1 117.2 117.2 117.3 117.3 117.4 117.5 117.5 117.6 117.6 117.7 117.8 117.8 117.9 118.0 118.0 118.1 118.1 118.2 118.2 118.3 118.4 118.4 118.5 118.5 118.6 118.7 118.7 118.8 118.8 118.9 119.0 119.0 119.1 119.1 119.2 119.3 119.3 119.4 119.5 119.5 119.6 119.6 119.7 119.8
107.9 108.0 108.0 108.1 108.2 108.2 108.3 108.3 108.4 108.5 108.5 108.6 108.6 108.7 108.8 108.8 108.9 108.9 109.0 109.1 109.1 109.2 109.2 109.3 109.4 109.4 109.5 109.5 109.6 109.7 109.7 109.8 109.8 109.9 110.0 110.0 110.1 110.1 110.2 110.3 110.3 110.4 110.4 110.5 110.6 110.6 110.7 110.7 110.8 110.9 110.9 111.0 111.0 111.1 111.2 111.2 111.3 111.3 111.4 111.5 111.5 111.6 111.6 111.7 111.8 111.8 111.9 111.9 112.0 112.1 112.1 112.2 112.2 112.3 112.4 112.4 112.5 112.5 112.6 112.7 112.7 112.8 112.8 112.9 113.0 113.0 113.1 113.1 113.2 113.3 113.3 113.4 113.4 113.5 113.6 113.6 113.7 113.7 113.8 113.9 113.9 114.0 114.0 114.1 114.2 114.2 114.3 114.3 114.4 114.5 114.5 114.6 114.6 114.7 114.8 114.8 114.9 114.9 115.0 115.1 115.1 115.2 115.2 115.3 115.4 115.4 115.5 115.5 115.6 115.7 115.7 115.8 115.8 115.9 116.0 116.0 116.1 116.1 116.2 116.3 116.3 116.4 116.4 116.5 116.6 116.6 116.7 116.7 116.8 116.9 116.9 117.0 117.0 117.1 117.2 117.2 117.3 117.3 117.4 117.5 117.5 117.6 117.6 117.7 117.8 117.8 117.9 117.9 118.0 118.1 118.1 118.2 118.2 118.3 118.4 118.4 118.5 118.5 118.6 118.7 118.7 118.8 118.8 118.9 119.0 119.0 119.1 119.1 119.2 119.3 119.3 119.4 119.4 119.5 119.6 119.6 119.7 119.7 119.8 119.9
108.0 108.1 108.1 108.2 108.3 108.3 108.4 108.4 108.5 108.6 108.6 108.7 108.7 108.8 108.9 108.9 109.0 109.0 109.1 109.2 109.2 109.3 109.3 109.4 109.5 109.5 109.6 109.6 109.7 109.8 109.8 109.9 109.9 110.0 110.1 110.1 110.2 110.2 110.3 110.4 110.4 110.5 110.5 110.6 110.7 110.7 110.8 110.8 110.9 111.0 111.0 111.1 111.1 111.2 111.3 111.3 111.4 111.4 111.5 111.6 111.6 111.7 111.7 111.8 111.9 111.9 112.0 112.0 112.1 112.2 112.2 112.3 112.3 112.4 112.5 112.5 112.6 112.6 112.7 112.8 112.8 112.9 112.9 113.0 113.1 113.1 113.2 113.2 113.3 113.4 113.4 113.5 113.5 113.6 113.7 113.7 113.8 113.8 113.9 114.0 114.0 114.1 114.1 114.2 114.3 114.3 114.4 114.4 114.5 114.6 114.6 114.7 114.7 114.8 114.9 114.9 115.0 115.0 115.1 115.2 115.2 115.3 115.3 115.4 115.5 115.5 115.6 115.6 115.7 115.8 115.8 115.9 115.9 116.0 116.1 116.1 116.2 116.2 116.3 116.4 116.4 116.5 116.5 116.6 116.7 116.7 116.8 116.8 116.9 117.0 117.0 117.1 117.1 117.2 117.3 117.3 117.4 117.4 117.5 117.6 117.6 117.7 117.7 117.8 117.9 117.9 118.0 118.0 118.1 118.2 118.2 118.3 118.3 118.4 118.5 118.5 118.6 118.6 118.7 118.8 118.8 118.9 118.9 119.0 119.1 119.1 119.2 119.2 119.3 119.4 119.4 119.5 119.6 119.6 119.7 119.7 119.8 119.9 119.9 120.0
108.1 108.2 108.3 108.3 108.4 108.4 108.5 108.6 108.6 108.7 108.7 108.8 108.9 108.9 109.0 109.0 109.1 109.2 109.2 109.3 109.3 109.4 109.5 109.5 109.6 109.6 109.7 109.8 109.8 109.9 109.9 110.0 110.1 110.1 110.2 110.2 110.3 110.4 110.4 110.5 110.5 110.6 110.7 110.7 110.8 110.8 110.9 111.0 111.0 111.1 111.1 111.2 111.3 111.3 111.4 111.4 111.5 111.6 111.6 111.7 111.7 111.8 111.9 111.9 112.0 112.0 112.1 112.2 112.2 112.3 112.3 112.4 112.5 112.5 112.6 112.6 112.7 112.8 112.8 112.9 112.9 113.0 113.1 113.1 113.2 113.2 113.3 113.4 113.4 113.5 113.5 113.6 113.7 113.7 113.8 113.8 113.9 114.0 114.0 114.1 114.1 114.2 114.3 114.3 114.4 114.4 114.5 114.6 114.6 114.7 114.7 114.8 114.9 114.9 115.0 115.0 115.1 115.2 115.2 115.3 115.3 115.4 115.5 115.5 115.6 115.6 115.7 115.8 115.8 115.9 115.9 116.0 116.1 116.1 116.2 116.2 116.3 116.4 116.4 116.5 116.5 116.6 116.7 116.7 116.8 116.8 116.9 117.0 117.0 117.1 117.1 117.2 117.3 117.3 117.4 117.4 117.5 117.6 117.6 117.7 117.7 117.8 117.9 117.9 118.0 118.0 118.1 118.2 118.2 118.3 118.3 118.4 118.5 118.5 118.6 118.6 118.7 118.8 118.8 118.9 118.9 119.0 119.1 119.1 119.2 119.2 119.3 119.4 119.4 119.5 119.5 119.6 119.7 119.7 119.8 119.8 119.9 120.0 120.0 120.1
108.2 108.3 108.4 108.4 108.5 108.5 108.6 108.7 108.7 108.8 108.8 108.9 109.0 109.0 109.1 109.2 109.2 109.3 109.3 109.4 109.5 109.5 109.6 109.6 109.7 109.8 109.8 109.9 109.9 110.0 110.0 110.1 110.2 110.2 110.3 110.3 110.4 110.5 110.5 110.6 110.7 110.7 110.8 110.8 110.9 111.0 111.0 111.1 111.1 111.2 111.2 111.3 111.4 111.4 111.5 111.5 111.6 111.7 111.7 111.8 111.8 111.9 112.0 112.0 112.1 112.2 112.2 112.3 112.3 112.4 112.5 112.5 112.6 112.6 112.7 112.8 112.8 112.9 112.9 113.0 113.0 113.1 113.2 113.2 113.3 113.3 113.4 113.5 113.5 113.6 113.7 113.7 113.8 113.8 113.9 114.0 114.0 114.1 114.1 114.2 114.2 114.3 114.4 114.4 114.5 114.5 114.6 114.7 114.7 114.8 114.8 114.9 115.0 115.0 115.1 115.2 115.2 115.3 115.3 115.4 115.5 115.5 115.6 115.6 115.7 115.8 115.8 115.9 115.9 116.0 116.0 116.1 116.2 116.2 116.3 116.3 116.4 116.5 116.5 116.6 116.7 116.7 116.8 116.8 116.9 117.0 117.0 117.1 117.1 117.2 117.2 117.3 117.4 117.4 117.5 117.5 117.6 117.7 117.7 117.8 117.8 117.9 118.0 118.0 118.1 118.2 118.2 118.3 118.3 118.4 118.5 118.5 118.6 118.6 118.7 118.8 118.8 118.9 118.9 119.0 119.0 119.1 119.2 119.2 119.3 119.3 119.4 119.5 119.5 119.6 119.7 119.7 119.8 119.8 119.9 120.0 120.0 120.1 120.1 120.2
108.4 108.4 108.5 108.5 108.6 108.7 108.7 108.8 108.8 108.9 109.0 109.0 109.1 109.1 109.2 109.3 109.3 109.4 109.4 109.5 109.6 109.6 109.7 109.7 109.8 109.9 109.9 110.0 110.0 110.1 110.2 110.2 110.3 110.3 110.4 110.5 110.5 110.6 110.6 110.7 110.8 110.8 110.9 110.9 111.0 111.1 111.1 111.2 111.2 111.3 111.4 111.4 111.5 111.5 111.6 111.7 111.7 111.8 111.8 111.9 112.0 112.0 112.1 112.1 112.2 112.3 112.3 112.4 112.4 112.5 112.6 112.6 112.7 112.7 112.8 112.9 112.9 113.0 113.0 113.1 113.2 113.2 113.3 113.3 113.4 113.5 113.5 113.6 113.6 113.7 113.8 113.8 113.9 113.9 114.0 114.1 114.1 114.2 114.2 114.3 114.4 114.4 114.5 114.5 114.6 114.7 114.7 114.8 114.8 114.9 115.0 115.0 115.1 115.1 115.2 115.3 115.3 115.4 115.4 115.5 115.6 115.6 115.7 115.7 115.8 115.9 115.9 116.0 116.0 116.1 116.2 116.2 116.3 116.3 116.4 116.5 116.5 116.6 116.6 116.7 116.8 116.8 116.9 116.9 117.0 117.1 117.1 117.2 117.2 117.3 117.4 117.4 117.5 117.5 117.6 117.7 117.7 117.8 117.8 117.9 118.0 118.0 118.1 118.1 118.2 118.3 118.3 118.4 118.4 118.5 118.6 118.6 118.7 118.7 118.8 118.9 118.9 119.0 119.0 119.1 119.2 119.2 119.3 119.3 119.4 119.5 119.5 119.6 119.6 119.7 119.8 119.8 119.9 119.9 120.0 120.1 120.1 120.2 120.2 120.3
108.5 108.5 108.6 108.7 108.7 108.8 108.8 108.9 109.0 109.0 109.1 109.1 109.2 109.3 109.3 109.4 109.4 109.5 109.6 109.6 109.7 109.7 109.8 109.9 109.9 110.0 110.0 110.1 110.2 110.2 110.3 110.3 110.4 110.5 110.5 110.6 110.6 110.7 110.8 110.8 110.9 110.9 111.0 111.1 111.1 111.2 111.2 111.3 111.4 111.4 111.5 111.5 111.6 111.7 111.7 111.8 111.8 111.9 112.0 112.0 112.1 112.1 112.2 112.3 112.3 112.4 112.4 112.5 112.6 112.6 112.7 112.7 112.8 112.9 112.9 113.0 113.0 113.1 113.2 113.2 113.3 113.3 113.4 113.5 113.5 113.6 113.6 113.7 113.8 113.8 113.9 113.9 114.0 114.1 114.1 114.2 114.2 114.3 114.4 114.4 114.5 114.5 114.6 114.7 114.7 114.8 114.8 114.9 115.0 115.0 115.1 115.1 115.2 115.3 115.3 115.4 115.4 115.5 115.6 115.6 115.7 115.7 115.8 115.9 115.9 116.0 116.0 116.1 116.2 116.2 116.3 116.3 116.4 116.5 116.5 116.6 116.6 116.7 116.8 116.8 116.9 116.9 117.0 117.1 117.1 117.2 117.2 117.3 117.4 117.4 117.5 117.5 117.6 117.7 117.7 117.8 117.8 117.9 118.0 118.0 118.1 118.1 118.2 118.3 118.3 118.4 118.4 118.5 118.6 118.6 118.7 118.7 118.8 118.9 118.9 119.0 119.0 119.1 119.2 119.2 119.3 119.3 119.4 119.5 119.5 119.6 119.6 119.7 119.8 119.8 119.9 119.9 120.0 120.1 120.1 120.2 120.2 120.3 120.4 120.4
108.6 108.6 108.7 108.8 108.8 108.9 108.9 109.0 109.1 109.1 109.2 109.2 109.3 109.4 109.4 109.5 109.5 109.6 109.7 109.7 109.8 109.8 109.9 110.0 110.0 110.1 110.1 110.2 110.3 110.3 110.4 110.4 110.5 110.6 110.6 110.7 110.7 110.8 110.9 110.9 111.0 111.0 111.1 111.2 111.2 111.3 111.3 111.4 111.5 111.5 111.6 111.6 111.7 111.8 111.8 111.9 111.9 112.0 112.1 112.1 112.2 112.2 112.3 112.4 112.4 112.5 112.5 112.6 112.7 112.7 112.8 112.8 112.9 113.0 113.0 113.1 113.1 113.2 113.3 113.3 113.4 113.4 113.5 113.6 113.6 113.7 113.7 113.8 113.9 113.9 114.0 114.0 114.1 114.2 114.2 114.3 114.3 114.4 114.5 114.5 114.6 114.6 114.7 114.8 114.8 114.9 114.9 115.0 115.1 115.1 115.2 115.2 115.3 115.4 115.4 115.5 115.5 115.6 115.7 115.7 115.8 115.8 115.9 116.0 116.0 116.1 116.1 116.2 116.3 116.3 116.4 116.4 116.5 116.6 116.6 116.7 116.7 116.8 116.9 116.9 117.0 117.0 117.1 117.2 117.2 117.3 117.3 117.4 117.5 117.5 117.6 117.6 117.7 117.8 117.8 117.9 117.9 118.0 118.1 118.1 118.2 118.2 118.3 118.4 118.4 118.5 118.5 118.6 118.7 118.7 118.8 118.8 118.9 119.0 119.0 119.1 119.1 119.2 119.3 119.3 119.4 119.4 119.5 119.6 119.6 119.7 119.7 119.8 119.9 119.9 120.0 120.0 120.1 120.2 120.2 120.3 120.3 120.4 120.5 120.5
108.7 108.8 108.8 108.9 108.9 109.0 109.0 109.1 109.2 109.2 109.3 109.4 109.4 109.5 109.5 109.6 109.7 109.7 109.8 109.8 109.9 110.0 110.0 110.1 110.1 110.2 110.2 110.3 110.4 110.4 110.5 110.5 110.6 110.7 110.7 110.8 110.9 110.9 111.0 111.0 111.1 111.2 111.2 111.3 111.3 111.4 111.5 111.5 111.6 111.6 111.7 111.8 111.8 111.9 111.9 112.0 112.0 112.1 112.2 112.2 112.3 112.4 112.4 112.5 112.5 112.6 112.7 112.7 112.8 112.8 112.9 113.0 113.0 113.1 113.1 113.2 113.2 113.3 113.4 113.4 113.5 113.5 113.6 113.7 113.7 113.8 113.9 113.9 114.0 114.0 114.1 114.2 114.2 114.3 114.3 114.4 114.5 114.5 114.6 114.6 114.7 114.8 114.8 114.9 114.9 115.0 115.0 115.1 115.2 115.2 115.3 115.4 115.4 115.5 115.5 115.6 115.7 115.7 115.8 115.8 115.9 116.0 116.0 116.1 116.1 116.2 116.2 116.3 116.4 116.4 116.5 116.5 116.6 116.7 116.7 116.8 116.9 116.9 117.0 117.0 117.1 117.2 117.2 117.3 117.3 117.4 117.5 117.5 117.6 117.6 117.7 117.8 117.8 117.9 117.9 118.0 118.0 118.1 118.2 118.2 118.3 118.4 118.4 118.5 118.5 118.6 118.7 118.7 118.8 118.8 118.9 119.0 119.0 119.1 119.1 119.2 119.2 119.3 119.4 119.4 119.5 119.5 119.6 119.7 119.7 119.8 119.9 119.9 120.0 120.0 120.1 120.2 120.2 120.3 120.3 120.4 120.5 120.5 120.6 120.6
108.8 108.9 108.9 109.0 109.0 109.1 109.2 109.2 109.3 109.3 109.4 109.5 109.5 109.6 109.6 109.7 109.8 109.8 109.9 109.9 110.0 110.1 110.1 110.2 110.2 110.3 110.4 110.4 110.5 110.5 110.6 110.7 110.7 110.8 110.8 110.9 111.0 111.0 111.1 111.1 111.2 111.3 111.3 111.4 111.4 111.5 111.6 111.6 111.7 111.7 111.8 111.9 111.9 112.0 112.0 112.1 112.2 112.2 112.3 112.3 112.4 112.5 112.5 112.6 112.6 112.7 112.8 112.8 112.9 112.9 113.0 113.1 113.1 113.2 113.2 113.3 113.4 113.4 113.5 113.5 113.6 113.7 113.7 113.8 113.8 113.9 114.0 114.0 114.1 114.1 114.2 114.3 114.3 114.4 114.4 114.5 114.6 114.6 114.7 114.7 114.8 114.9 114.9 115.0 115.0 115.1 115.2 115.2 115.3 115.3 115.4 115.5 115.5 115.6 115.6 115.7 115.8 115.8 115.9 115.9 116.0 116.1 116.1 116.2 116.2 116.3 116.4 116.4 116.5 116.5 116.6 116.7 116.7 116.8 116.8 116.9 117.0 117.0 117.1 117.1 117.2 117.3 117.3 117.4 117.4 117.5 117.6 117.6 117.7 117.7 117.8 117.9 117.9 118.0 118.0 118.1 118.2 118.2 118.3 118.3 118.4 118.5 118.5 118.6 118.6 118.7 118.8 118.8 118.9 118.9 119.0 119.1 119.1 119.2 119.2 119.3 119.4 119.4 119.5 119.5 119.6 119.7 119.7 119.8 119.8 119.9 120.0 120.0 120.1 120.1 120.2 120.3 120.3 120.4 120.4 120.5 120.6 120.6 120.7 120.7
108.9 109.0 109.0 109.1 109.1 109.2 109.3 109.3 109.4 109.5 109.5 109.6 109.6 109.7 109.8 109.8 109.9 109.9 110.0 110.0 110.1 110.2 110.2 110.3 110.3 110.4 110.5 110.5 110.6 110.6 110.7 110.8 110.8 110.9 111.0 111.0 111.1 111.1 111.2 111.2 111.3 111.4 111.4 111.5 111.5 111.6 111.7 111.7 111.8 111.8 111.9 112.0 112.0 112.1 112.1 112.2 112.3 112.3 112.4 112.5 112.5 112.6 112.6 112.7 112.8 112.8 112.9 112.9 113.0 113.0 113.1 113.2 113.2 113.3 113.3 113.4 113.5 113.5 113.6 113.6 113.7 113.8 113.8 113.9 114.0 114.0 114.1 114.1 114.2 114.2 114.3 114.4 114.4 114.5 114.5 114.6 114.7 114.7 114.8 114.8 114.9 115.0 115.0 115.1 115.1 115.2 115.3 115.3 115.4 115.5 115.5 115.6 115.6 115.7 115.8 115.8 115.9 115.9 116.0 116.0 116.1 116.2 116.2 116.3 116.3 116.4 116.5 116.5 116.6 116.6 116.7 116.8 116.8 116.9 117.0 117.0 117.1 117.1 117.2 117.2 117.3 117.4 117.4 117.5 117.5 117.6 117.7 117.7 117.8 117.8 117.9 118.0 118.0 118.1 118.1 118.2 118.3 118.3 118.4 118.5 118.5 118.6 118.6 118.7 118.8 118.8 118.9 118.9 119.0 119.0 119.1 119.2 119.2 119.3 119.3 119.4 119.5 119.5 119.6 119.6 119.7 119.8 119.8 119.9 120.0 120.0 120.1 120.1 120.2 120.2 120.3 120.4 120.4 120.5 120.5 120.6 120.7 120.7 120.8 120.8
109.0 109.1 109.1 109.2 109.3 109.3 109.4 109.4 109.5 109.6 109.6 109.7 109.7 109.8 109.9 109.9 110.0 110.0 110.1 110.2 110.2 110.3 110.3 110.4 110.5 110.5 110.6 110.6 110.7 110.8 110.8 110.9 110.9 111.0 111.1 111.1 111.2 111.2 111.3 111.4 111.4 111.5 111.5 111.6 111.7 111.7 111.8 111.8 111.9 112.0 112.0 112.1 112.1 112.2 112.3 112.3 112.4 112.4 112.5 112.6 112.6 112.7 112.7 112.8 112.9 112.9 113.0 113.0 113.1 113.2 113.2 113.3 113.3 113.4 113.5 113.5 113.6 113.6 113.7 113.8 113.8 113.9 113.9 114.0 114.1 114.1 114.2 114.2 114.3 114.4 114.4 114.5 114.5 114.6 114.7 114.7 114.8 114.8 114.9 115.0 115.0 115.1 115.1 115.2 115.3 115.3 115.4 115.4 115.5 115.6 115.6 115.7 115.7 115.8 115.9 115.9 116.0 116.0 116.1 116.2 116.2 116.3 116.3 116.4 116.5 116.5 116.6 116.6 116.7 116.8 116.8 116.9 116.9 117.0 117.1 117.1 117.2 117.2 117.3 117.4 117.4 117.5 117.5 117.6 117.7 117.7 117.8 117.8 117.9 118.0 118.0 118.1 118.1 118.2 118.3 118.3 118.4 118.4 118.5 118.6 118.6 118.7 118.7 118.8 118.9 118.9 119.0 119.0 119.1 119.2 119.2 119.3 119.3 119.4 119.5 119.5 119.6 119.6 119.7 119.8 119.8 119.9 119.9 120.0 120.1 120.1 120.2 120.2 120.3 120.4 120.4 120.5 120.5 120.6 120.7 120.7 120.8 120.8 120.9 121.0
109.1 109.2 109.2 109.3 109.4 109.4 109.5 109.5 109.6 109.7 109.7 109.8 109.8 109.9 110.0 110.0 110.1 110.1 110.2 110.3 110.3 110.4 110.4 110.5 110.6 110.6 110.7 110.7 110.8 110.9 110.9 111.0 111.0 111.1 111.2 111.2 111.3 111.3 111.4 111.5 111.5 111.6 111.6 111.7 111.8 111.8 111.9 111.9 112.0 112.1 112.1 112.2 112.2 112.3 112.4 112.4 112.5 112.5 112.6 112.7 112.7 112.8 112.8 112.9 113.0 113.0 113.1 113.1 113.2 113.3 113.3 113.4 113.4 113.5 113.6 113.6 113.7 113.7 113.8 113.9 113.9 114.0 114.0 114.1 114.2 114.2 114.3 114.3 114.4 114.5 114.5 114.6 114.6 114.7 114.8 114.8 114.9 114.9 115.0 115.1 115.1 115.2 115.2 115.3 115.4 115.4 115.5 115.5 115.6 115.7 115.7 115.8 115.8 115.9 116.0 116.0 116.1 116.1 116.2 116.3 116.3 116.4 116.4 116.5 116.6 116.6 116.7 116.7 116.8 116.9 116.9 117.0 117.0 117.1 117.2 117.2 117.3 117.3 117.4 117.5 117.5 117.6 117.6 117.7 117.8 117.8 117.9 117.9 118.0 118.1 118.1 118.2 118.2 118.3 118.4 118.4 118.5 118.5 118.6 118.7 118.7 118.8 118.8 118.9 119.0 119.0 119.1 119.1 119.2 119.3 119.3 119.4 119.4 119.5 119.6 119.6 119.7 119.7 119.8 119.9 119.9 120.0 120.0 120.1 120.2 120.2 120.3 120.3 120.4 120.5 120.5 120.6 120.7 120.7 120.8 120.8 120.9 121.0 121.0 121.1
109.2 109.3 109.4 109.4 109.5 109.5 109.6 109.7 109.7 109.8 109.8 109.9 110.0 110.0 110.1 110.1 110.2 110.3 110.3 110.4 110.4 110.5 110.6 110.6 110.7 110.7 110.8 110.9 110.9 111.0 111.0 111.1 111.2 111.2 111.3 111.3 111.4 111.5 111.5 111.6 111.6 111.7 111.8 111.8 111.9 111.9 112.0 112.1 112.1 112.2 112.2 112.3 112.4 112.4 112.5 112.5 112.6 112.7 112.7 112.8 112.8 112.9 113.0 113.0 113.1 113.1 113.2 113.3 113.3 113.4 113.4 113.5 113.6 113.6 113.7 113.7 113.8 113.9 113.9 114.0 114.0 114.1 114.2 114.2 114.3 114.3 114.4 114.5 114.5 114.6 114.6 114.7 114.8 114.8 114.9 114.9 115.0 115.1 115.1 115.2 115.2 115.3 115.4 115.4 115.5 115.5 115.6 115.7 115.7 115.8 115.8 115.9 116.0 116.0 116.1 116.1 116.2 116.3 116.3 116.4 116.4 116.5 116.6 116.6 116.7 116.7 116.8 116.9 116.9 117.0 117.0 117.1 117.2 117.2 117.3 117.3 117.4 117.5 117.5 117.6 117.6 117.7 117.8 117.8 117.9 117.9 118.0 118.1 118.1 118.2 118.2 118.3 118.4 118.4 118.5 118.5 118.6 118.7 118.7 118.8 118.8 118.9 119.0 119.0 119.1 119.1 119.2 119.3 119.3 119.4 119.4 119.5 119.6 119.6 119.7 119.7 119.8 119.9 119.9 120.0 120.0 120.1 120.2 120.2 120.3 120.3 120.4 120.5 120.5 120.6 120.6 120.7 120.8 120.8 120.9 120.9 121.0 121.1 121.1 121.2
109.3 109.4 109.5 109.5 109.6 109.7 109.7 109.8 109.8 109.9 110.0 110.0 110.1 110.1 110.2 110.2 110.3 110.4 110.4 110.5 110.5 110.6 110.7 110.7 110.8 110.8 110.9 111.0 111.0 111.1 111.2 111.2 111.3 111.3 111.4 111.5 111.5 111.6 111.6 111.7 111.8 111.8 111.9 111.9 112.0 112.0 112.1 112.2 112.2 112.3 112.3 112.4 112.5 112.5 112.6 112.7 112.7 112.8 112.8 112.9 113.0 113.0 113.1 113.1 113.2 113.2 113.3 113.4 113.4 113.5 113.5 113.6 113.7 113.7 113.8 113.8 113.9 114.0 114.0 114.1 114.2 114.2 114.3 114.3 114.4 114.5 114.5 114.6 114.6 114.7 114.8 114.8 114.9 114.9 115.0 115.0 115.1 115.2 115.2 115.3 115.3 115.4 115.5 115.5 115.6 115.7 115.7 115.8 115.8 115.9 116.0 116.0 116.1 116.1 116.2 116.2 116.3 116.4 116.4 116.5 116.5 116.6 116.7 116.7 116.8 116.8 116.9 117.0 117.0 117.1 117.2 117.2 117.3 117.3 117.4 117.5 117.5 117.6 117.6 117.7 117.8 117.8 117.9 117.9 118.0 118.0 118.1 118.2 118.2 118.3 118.3 118.4 118.5 118.5 118.6 118.7 118.7 118.8 118.8 118.9 119.0 119.0 119.1 119.1 119.2 119.2 119.3 119.4 119.4 119.5 119.5 119.6 119.7 119.7 119.8 119.8 119.9 120.0 120.0 120.1 120.2 120.2 120.3 120.3 120.4 120.5 120.5 120.6 120.6 120.7 120.8 120.8 120.9 120.9 121.0 121.0 121.1 121.2 121.2 121.3
109.5 109.5 109.6 109.6 109.7 109.8 109.8 109.9 109.9 110.0 110.1 110.1 110.2 110.2 110.3 110.4 110.4 110.5 110.5 110.6 110.7 110.7 110.8 110.8 110.9 111.0 111.0 111.1 111.1 111.2 111.3 111.3 111.4 111.4 111.5 111.6 111.6 111.7 111.7 111.8 111.9 111.9 112.0 112.0 112.1 112.2 112.2 112.3 112.3 112.4 112.5 112.5 112.6 112.6 112.7 112.8 112.8 112.9 112.9 113.0 113.1 113.1 113.2 113.2 113.3 113.4 113.4 113.5 113.5 113.6 113.7 113.7 113.8 113.8 113.9 114.0 114.0 114.1 114.1 114.2 114.3 114.3 114.4 114.4 114.5 114.6 114.6 114.7 114.7 114.8 114.9 114.9 115.0 115.0 115.1 115.2 115.2 115.3 115.3 115.4 115.5 115.5 115.6 115.6 115.7 115.8 115.8 115.9 115.9 116.0 116.1 116.1 116.2 116.2 116.3 116.4 116.4 116.5 116.5 116.6 116.7 116.7 116.8 116.8 116.9 117.0 117.0 117.1 117.1 117.2 117.3 117.3 117.4 117.4 117.5 117.6 117.6 117.7 117.7 117.8 117.9 117.9 118.0 118.0 118.1 118.2 118.2 118.3 118.3 118.4 118.5 118.5 118.6 118.6 118.7 118.8 118.8 118.9 118.9 119.0 119.1 119.1 119.2 119.2 119.3 119.4 119.4 119.5 119.5 119.6 119.7 119.7 119.8 119.8 119.9 120.0 120.0 120.1 120.1 120.2 120.3 120.3 120.4 120.4 120.5 120.6 120.6 120.7 120.7 120.8 120.9 120.9 121.0 121.0 121.1 121.2 121.2 121.3 121.3 121.4
109.6 109.6 109.7 109.8 109.8 109.9 109.9 110.0 110.1 110.1 110.2 110.2 110.3 110.4 110.4 110.5 110.5 110.6 110.7 110.7 110.8 110.8 110.9 111.0 111.0 111.1 111.1 111.2 111.3 111.3 111.4 111.4 111.5 111.6 111.6 111.7 111.7 111.8 111.9 111.9 112.0 112.0 112.1 112.2 112.2 112.3 112.3 112.4 112.5 112.5 112.6 112.6 112.7 112.8 112.8 112.9 112.9 113.0 113.1 113.1 113.2 113.2 113.3 113.4 113.4 113.5 113.5 113.6 113.7 113.7 113.8 113.8 113.9 114.0 114.0 114.1 114.1 114.2 114.3 114.3 114.4 114.4 114.5 114.6 114.6 114.7 114.7 114.8 114.9 114.9 115.0 115.0 115.1 115.2 115.2 115.3 115.3 115.4 115.5 115.5 115.6 115.6 115.7 115.8 115.8 115.9 115.9 116.0 116.1 116.1 116.2 116.2 116.3 116.4 116.4 116.5 116.5 116.6 116.7 116.7 116.8 116.8 116.9 117.0 117.0 117.1 117.1 117.2 117.3 117.3 117.4 117.4 117.5 117.6 117.6 117.7 117.7 117.8 117.9 117.9 118.0 118.0 118.1 118.2 118.2 118.3 118.3 118.4 118.5 118.5 118.6 118.6 118.7 118.8 118.8 118.9 118.9 119.0 119.1 119.1 119.2 119.2 119.3 119.4 119.4 119.5 119.5 119.6 119.7 119.7 119.8 119.8 119.9 120.0 120.0 120.1 120.1 120.2 120.3 120.3 120.4 120.4 120.5 120.6 120.6 120.7 120.7 120.8 120.9 120.9 121.0 121.0 121.1 121.2 121.2 121.3 121.3 121.4 121.5 121.5
109.7 109.7 109.8 109.9 109.9 110.0 110.0 110.1 110.2 110.2 110.3 110.3 110.4 110.5 110.5 110.6 110.6 110.7 110.8 110.8 110.9 110.9 111.0 111.1 111.1 111.2 111.2 111.3 111.4 111.4 111.5 111.5 111.6 111.7 111.7 111.8 111.8 111.9 112.0 112.0 112.1 112.1 112.2 112.3 112.3 112.4 112.4 112.5 112.6 112.6 112.7 112.7 112.8 112.9 112.9 113.0 113.0 113.1 113.2 113.2 113.3 113.3 113.4 113.5 113.5 113.6 113.6 113.7 113.8 113.8 113.9 113.9 114.0 114.1 114.1 114.2 114.2 114.3 114.4 114.4 114.5 114.5 114.6 114.7 114.7 114.8 114.8 114.9 115.0 115.0 115.1 115.1 115.2 115.3 115.3 115.4 115.4 115.5 115.6 115.6 115.7 115.7 115.8 115.9 115.9 116.0 116.0 116.1 116.2 116.2 116.3 116.3 116.4 116.5 116.5 116.6 116.6 116.7 116.8 116.8 116.9 116.9 117.0 117.1 117.1 117.2 117.2 117.3 117.4 117.4 117.5 117.5 117.6 117.7 117.7 117.8 117.8 117.9 118.0 118.0 118.1 118.1 118.2 118.3 118.3 118.4 118.4 118.5 118.6 118.6 118.7 118.7 118.8 118.9 118.9 119.0 119.0 119.1 119.2 119.2 119.3 119.3 119.4 119.5 119.5 119.6 119.6 119.7 119.8 119.8 119.9 119.9 120.0 120.1 120.1 120.2 120.2 120.3 120.4 120.4 120.5 120.5 120.6 120.7 120.7 120.8 120.8 120.9 121.0 121.0 121.1 121.1 121.2 121.3 121.3 121.4 121.4 121.5 121.6 121.6
109.8 109.9 109.9 110.0 110.0 110.1 110.2 110.2 110.3 110.3 110.4 110.5 110.5 110.6 110.6 110.7 110.8 110.8 110.9 110.9 111.0 111.0 111.1 111.2 111.2 111.3 111.4 111.4 111.5 111.5 111.6 111.7 111.7 111.8 111.8 111.9 112.0 112.0 112.1 112.1 112.2 112.2 112.3 112.4 112.4 112.5 112.5 112.6 112.7 112.7 112.8 112.9 112.9 113.0 113.0 113.1 113.2 113.2 113.3 113.3 113.4 113.5 113.5 113.6 113.6 113.7 113.8 113.8 113.9 113.9 114.0 114.0 114.1 114.2 114.2 114.3 114.4 114.4 114.5 114.5 114.6 114.7 114.7 114.8 114.8 114.9 115.0 115.0 115.1 115.1 115.2 115.2 115.3 115.4 115.4 115.5 115.5 115.6 115.7 115.7 115.8 115.9 115.9 116.0 116.0 116.1 116.2 116.2 116.3 116.3 116.4 116.5 116.5 116.6 116.6 116.7 116.8 116.8 116.9 116.9 117.0 117.0 117.1 117.2 117.2 117.3 117.4 117.4 117.5 117.5 117.6 117.7 117.7 117.8 117.8 117.9 118.0 118.0 118.1 118.1 118.2 118.2 118.3 118.4 118.4 118.5 118.5 118.6 118.7 118.7 118.8 118.9 118.9 119.0 119.0 119.1 119.2 119.2 119.3 119.3 119.4 119.5 119.5 119.6 119.6 119.7 119.8 119.8 119.9 119.9 120.0 120.0 120.1 120.2 120.2 120.3 120.4 120.4 120.5 120.5 120.6 120.7 120.7 120.8 120.8 120.9 121.0 121.0 121.1 121.1 121.2 121.2 121.3 121.4 121.4 121.5 121.5 121.6 121.7 121.7
109.9 110.0 110.0 110.1 110.1 110.2 110.3 110.3 110.4 110.4 110.5 110.6 110.6 110.7 110.7 110.8 110.9 110.9 111.0 111.0 111.1 111.2 111.2 111.3 111.3 111.4 111.5 111.5 111.6 111.6 111.7 111.8 111.8 111.9 111.9 112.0 112.1 112.1 112.2 112.2 112.3 112.4 112.4 112.5 112.5 112.6 112.7 112.7 112.8 112.8 112.9 113.0 113.0 113.1 113.1 113.2 113.3 113.3 113.4 113.4 113.5 113.6 113.6 113.7 113.7 113.8 113.9 113.9 114.0 114.0 114.1 114.2 114.2 114.3 114.3 114.4 114.5 114.5 114.6 114.6 114.7 114.8 114.8 114.9 114.9 115.0 115.1 115.1 115.2 115.2 115.3 115.4 115.4 115.5 115.5 115.6 115.7 115.7 115.8 115.8 115.9 116.0 116.0 116.1 116.1 116.2 116.3 116.3 116.4 116.4 116.5 116.6 116.6 116.7 116.7 116.8 116.9 116.9 117.0 117.0 117.1 117.2 117.2 117.3 117.3 117.4 117.5 117.5 117.6 117.6 117.7 117.8 117.8 117.9 117.9 118.0 118.1 118.1 118.2 118.2 118.3 118.4 118.4 118.5 118.5 118.6 118.7 118.7 118.8 118.8 118.9 119.0 119.0 119.1 119.1 119.2 119.3 119.3 119.4 119.4 119.5 119.6 119.6 119.7 119.7 119.8 119.9 119.9 120.0 120.0 120.1 120.2 120.2 120.3 120.3 120.4 120.5 120.5 120.6 120.6 120.7 120.8 120.8 120.9 120.9 121.0 121.1 121.1 121.2 121.2 121.3 121.4 121.4 121.5 121.5 121.6 121.7 121.7 121.8 121.8
110.0 110.1 110.1 110.2 110.2 110.3 110.4 110.4 110.5 110.5 110.6 110.7 110.7 110.8 110.8 110.9 111.0 111.0 111.1 111.1 111.2 111.3 111.3 111.4 111.5 111.5 111.6 111.6 111.7 111.8 111.8 111.9 111.9 112.0 112.0 112.1 112.2 112.2 112.3 112.3 112.4 112.5 112.5 112.6 112.6 112.7 112.8 112.8 112.9 113.0 113.0 113.1 113.1 113.2 113.2 113.3 113.4 113.4 113.5 113.5 113.6 113.7 113.7 113.8 113.8 113.9 114.0 114.0 114.1 114.1 114.2 114.3 114.3 114.4 114.5 114.5 114.6 114.6 114.7 114.8 114.8 114.9 114.9 115.0 115.0 115.1 115.2 115.2 115.3 115.3 115.4 115.5 115.5 115.6 115.6 115.7 115.8 115.8 115.9 116.0 116.0 116.1 116.1 116.2 116.2 116.3 116.4 116.4 116.5 116.5 116.6 116.7 116.7 116.8 116.8 116.9 117.0 117.0 117.1 117.1 117.2 117.3 117.3 117.4 117.5 117.5 117.6 117.6 117.7 117.8 117.8 117.9 117.9 118.0 118.0 118.1 118.2 118.2 118.3 118.3 118.4 118.5 118.5 118.6 118.6 118.7 118.8 118.8 118.9 119.0 119.0 119.1 119.1 119.2 119.2 119.3 119.4 119.4 119.5 119.5 119.6 119.7 119.7 119.8 119.8 119.9 120.0 120.0 120.1 120.1 120.2 120.3 120.3 120.4 120.5 120.5 120.6 120.6 120.7 120.8 120.8 120.9 120.9 121.0 121.0 121.1 121.2 121.2 121.3 121.3 121.4 121.5 121.5 121.6 121.6 121.7 121.8 121.8 121.9 122.0
110.1 110.2 110.2 110.3 110.4 110.4 110.5 110.5 110.6 110.7 110.7 110.8 110.8 110.9 111.0 111.0 111.1 111.1 111.2 111.3 111.3 111.4 111.4 111.5 111.6 111.6 111.7 111.7 111.8 111.9 111.9 112.0 112.0 112.1 112.2 112.2 112.3 112.3 112.4 112.5 112.5 112.6 112.6 112.7 112.8 112.8 112.9 112.9 113.0 113.1 113.1 113.2 113.2 113.3 113.4 113.4 113.5 113.5 113.6 113.7 113.7 113.8 113.8 113.9 114.0 114.0 114.1 114.1 114.2 114.3 114.3 114.4 114.4 114.5 114.6 114.6 114.7 114.7 114.8 114.9 114.9 115.0 115.0 115.1 115.2 115.2 115.3 115.3 115.4 115.5 115.5 115.6 115.6 115.7 115.8 115.8 115.9 115.9 116.0 116.1 116.1 116.2 116.2 116.3 116.4 116.4 116.5 116.5 116.6 116.7 116.7 116.8 116.8 116.9 117.0 117.0 117.1 117.1 117.2 117.3 117.3 117.4 117.4 117.5 117.6 117.6 117.7 117.7 117.8 117.9 117.9 118.0 118.0 118.1 118.2 118.2 118.3 118.3 118.4 118.5 118.5 118.6 118.6 118.7 118.8 118.8 118.9 118.9 119.0 119.1 119.1 119.2 119.2 119.3 119.4 119.4 119.5 119.5 119.6 119.7 119.7 119.8 119.8 119.9 120.0 120.0 120.1 120.1 120.2 120.3 120.3 120.4 120.4 120.5 120.6 120.6 120.7 120.7 120.8 120.9 120.9 121.0 121.0 121.1 121.2 121.2 121.3 121.3 121.4 121.5 121.5 121.6 121.6 121.7 121.8 121.8 121.9 121.9 122.0 122.1
110.2 110.3 110.3 110.4 110.5 110.5 110.6 110.6 110.7 110.8 110.8 110.9 110.9 111.0 111.1 111.1 111.2 111.2 111.3 111.4 111.4 111.5 111.5 111.6 111.7 111.7 111.8 111.8 111.9 112.0 112.0 112.1 112.1 112.2 112.3 112.3 112.4 112.4 112.5 112.6 112.6 112.7 112.7 112.8 112.9 112.9 113.0 113.0 113.1 113.2 113.2 113.3 113.3 113.4 113.5 113.5 113.6 113.6 113.7 113.8 113.8 113.9 113.9 114.0 114.1 114.1 114.2 114.2 114.3 114.4 114.4 114.5 114.5 114.6 114.7 114.7 114.8 114.8 114.9 115.0 115.0 115.1 115.1 115.2 115.3 115.3 115.4 115.4 115.5 115.6 115.6 115.7 115.7 115.8 115.9 115.9 116.0 116.0 116.1 116.2 116.2 116.3 116.3 116.4 116.5 116.5 116.6 116.6 116.7 116.8 116.8 116.9 116.9 117.0 117.1 117.1 117.2 117.2 117.3 117.4 117.4 117.5 117.5 117.6 117.7 117.7 117.8 117.8 117.9 118.0 118.0 118.1 118.1 118.2 118.3 118.3 118.4 118.4 118.5 118.6 118.6 118.7 118.7 118.8 118.9 118.9 119.0 119.0 119.1 119.2 119.2 119.3 119.3 119.4 119.5 119.5 119.6 119.6 119.7 119.8 119.8 119.9 119.9 120.0 120.1 120.1 120.2 120.2 120.3 120.4 120.4 120.5 120.5 120.6 120.7 120.7 120.8 120.8 120.9 121.0 121.0 121.1 121.1 121.2 121.3 121.3 121.4 121.4 121.5 121.6 121.6 121.7 121.8 121.8 121.9 121.9 122.0 122.1 122.1 122.2
110.3 110.4 110.5 110.5 110.6 110.6 110.7 110.8 110.8 110.9 110.9 111.0 111.1 111.1 111.2 111.2 111.3 111.4 111.4 111.5 111.5 111.6 111.7 111.7 111.8 111.8 111.9 112.0 112.0 112.1 112.1 112.2 112.3 112.3 112.4 112.4 112.5 112.6 112.6 112.7 112.7 112.8 112.9 112.9 113.0 113.0 113.1 113.2 113.2 113.3 113.3 113.4 113.5 113.5 113.6 113.6 113.7 113.8 113.8 113.9 113.9 114.0 114.1 114.1 114.2 114.2 114.3 114.4 114.4 114.5 114.5 114.6 114.7 114.7 114.8 114.8 114.9 115.0 115.0 115.1 115.1 115.2 115.3 115.3 115.4 115.4 115.5 115.6 115.6 115.7 115.7 115.8 115.9 115.9 116.0 116.0 116.1 116.2 116.2 116.3 116.3 116.4 116.5 116.5 116.6 116.6 116.7 116.8 116.8 116.9 116.9 117.0 117.1 117.1 117.2 117.2 117.3 117.4 117.4 117.5 117.5 117.6 117.7 117.7 117.8 117.8 117.9 118.0 118.0 118.1 118.1 118.2 118.3 118.3 118.4 118.4 118.5 118.6 118.6 118.7 118.7 118.8 118.9 118.9 119.0 119.0 119.1 119.2 119.2 119.3 119.3 119.4 119.5 119.5 119.6 119.6 119.7 119.8 119.8 119.9 119.9 120.0 120.1 120.1 120.2 120.2 120.3 120.4 120.4 120.5 120.5 120.6 120.7 120.7 120.8 120.8 120.9 121.0 121.0 121.1 121.1 121.2 121.3 121.3 121.4 121.4 121.5 121.6 121.6 121.7 121.7 121.8 121.9 121.9 122.0 122.0 122.1 122.2 122.2 122.3
110.5 110.5 110.6 110.6 110.7 110.8 110.8 110.9 110.9 111.0 111.0 111.1 111.2 111.2 111.3 111.3 111.4 111.5 111.5 111.6 111.7 111.7 111.8 111.8 111.9 112.0 112.0 112.1 112.1 112.2 112.2 112.3 112.4 112.4 112.5 112.5 112.6 112.7 112.7 112.8 112.8 112.9 113.0 113.0 113.1 113.2 113.2 113.3 113.3 113.4 113.5 113.5 113.6 113.6 113.7 113.8 113.8 113.9 113.9 114.0 114.0 114.1 114.2 114.2 114.3 114.3 114.4 114.5 114.5 114.6 114.7 114.7 114.8 114.8 114.9 115.0 115.0 115.1 115.1 115.2 115.2 115.3 115.4 115.4 115.5 115.5 115.6 115.7 115.7 115.8 115.8 115.9 116.0 116.0 116.1 116.2 116.2 116.3 116.3 116.4 116.5 116.5 116.6 116.6 116.7 116.8 116.8 116.9 116.9 117.0 117.0 117.1 117.2 117.2 117.3 117.3 117.4 117.5 117.5 117.6 117.7 117.7 117.8 117.8 117.9 118.0 118.0 118.1 118.1 118.2 118.2 118.3 118.4 118.4 118.5 118.5 118.6 118.7 118.7 118.8 118.8 118.9 119.0 119.0 119.1 119.2 119.2 119.3 119.3 119.4 119.5 119.5 119.6 119.6 119.7 119.8 119.8 119.9 119.9 120.0 120.0 120.1 120.2 120.2 120.3 120.3 120.4 120.5 120.5 120.6 120.7 120.7 120.8 120.8 120.9 121.0 121.0 121.1 121.1 121.2 121.2 121.3 121.4 121.4 121.5 121.5 121.6 121.7 121.7 121.8 121.8 121.9 122.0 122.0 122.1 122.2 122.2 122.3 122.3 122.4
110.6 110.6 110.7 110.7 110.8 110.9 110.9 111.0 111.0 111.1 111.2 111.2 111.3 111.3 111.4 111.5 111.5 111.6 111.6 111.7 111.8 111.8 111.9 111.9 112.0 112.1 112.1 112.2 112.2 112.3 112.4 112.4 112.5 112.5 112.6 112.7 112.7 112.8 112.8 112.9 113.0 113.0 113.1 113.1 113.2 113.3 113.3 113.4 113.4 113.5 113.6 113.6 113.7 113.7 113.8 113.9 113.9 114.0 114.0 114.1 114.2 114.2 114.3 114.3 114.4 114.5 114.5 114.6 114.6 114.7 114.8 114.8 114.9 114.9 115.0 115.1 115.1 115.2 115.2 115.3 115.4 115.4 115.5 115.5 115.6 115.7 115.7 115.8 115.8 115.9 116.0 116.0 116.1 116.1 116.2 116.3 116.3 116.4 116.4 116.5 116.6 116.6 116.7 116.7 116.8 116.9 116.9 117.0 117.0 117.1 117.2 117.2 117.3 117.3 117.4 117.5 117.5 117.6 117.6 117.7 117.8 117.8 117.9 117.9 118.0 118.1 118.1 118.2 118.2 118.3 118.4 118.4 118.5 118.5 118.6 118.7 118.7 118.8 118.8 118.9 119.0 119.0 119.1 119.1 119.2 119.3 119.3 119.4 119.4 119.5 119.6 119.6 119.7 119.7 119.8 119.9 119.9 120.0 120.0 120.1 120.2 120.2 120.3 120.3 120.4 120.5 120.5 120.6 120.6 120.7 120.8 120.8 120.9 120.9 121.0 121.1 121.1 121.2 121.2 121.3 121.4 121.4 121.5 121.5 121.6 121.7 121.7 121.8 121.8 121.9 122.0 122.0 122.1 122.1 122.2 122.3 122.3 122.4 122.4 122.5
110.7 110.7 110.8 110.9 110.9 111.0 111.0 111.1 111.2 111.2 111.3 111.3 111.4 111.5 111.5 111.6 111.6 111.7 111.8 111.8 111.9 111.9 112.0 112.1 112.1 112.2 112.2 112.3 112.4 112.4 112.5 112.5 112.6 112.7 112.7 112.8 112.8 112.9 113.0 113.0 113.1 113.1 113.2 113.3 113.3 113.4 113.4 113.5 113.6 113.6 113.7 113.7 113.8 113.9 113.9 114.0 114.0 114.1 114.2 114.2 114.3 114.3 114.4 114.5 114.5 114.6 114.6 114.7 114.8 114.8 114.9 114.9 115.0 115.1 115.1 115.2 115.2 115.3 115.4 115.4 115.5 115.5 115.6 115.7 115.7 115.8 115.8 115.9 116.0 116.0 116.1 116.1 116.2 116.3 116.3 116.4 116.4 116.5 116.6 116.6 116.7 116.7 116.8 116.9 116.9 117.0 117.0 117.1 117.2 117.2 117.3 117.3 117.4 117.5 117.5 117.6 117.6 117.7 117.8 117.8 117.9 117.9 118.0 118.1 118.1 118.2 118.2 118.3 118.4 118.4 118.5 118.5 118.6 118.7 118.7 118.8 118.8 118.9 119.0 119.0 119.1 119.1 119.2 119.3 119.3 119.4 119.4 119.5 119.6 119.6 119.7 119.7 119.8 119.9 119.9 120.0 120.0 120.1 120.2 120.2 120.3 120.3 120.4 120.5 120.5 120.6 120.6 120.7 120.8 120.8 120.9 120.9 121.0 121.1 121.1 121.2 121.2 121.3 121.4 121.4 121.5 121.5 121.6 121.7 121.7 121.8 121.8 121.9 122.0 122.0 122.1 122.1 122.2 122.3 122.3 122.4 122.4 122.5 122.6 122.6
110.8 110.8 110.9 111.0 111.0 111.1 111.1 111.2 111.3 111.3 111.4 111.4 111.5 111.6 111.6 111.7 111.7 111.8 111.9 111.9 112.0 112.0 112.1 112.2 112.2 112.3 112.3 112.4 112.5 112.5 112.6 112.6 112.7 112.8 112.8 112.9 112.9 113.0 113.1 113.1 113.2 113.2 113.3 113.4 113.4 113.5 113.5 113.6 113.7 113.7 113.8 113.8 113.9 114.0 114.0 114.1 114.1 114.2 114.3 114.3 114.4 114.4 114.5 114.6 114.6 114.7 114.7 114.8 114.9 114.9 115.0 115.0 115.1 115.2 115.2 115.3 115.3 115.4 115.5 115.5 115.6 115.6 115.7 115.8 115.8 115.9 115.9 116.0 116.1 116.1 116.2 116.2 116.3 116.4 116.4 116.5 116.5 116.6 116.7 116.7 116.8 116.8 116.9 117.0 117.0 117.1 117.1 117.2 117.3 117.3 117.4 117.4 117.5 117.6 117.6 117.7 117.7 117.8 117.9 117.9 118.0 118.0 118.1 118.2 118.2 118.3 118.3 118.4 118.5 118.5 118.6 118.6 118.7 118.8 118.8 118.9 118.9 119.0 119.1 119.1 119.2 119.2 119.3 119.4 119.4 119.5 119.5 119.6 119.7 119.7 119.8 119.8 119.9 120.0 120.0 120.1 120.1 120.2 120.3 120.3 120.4 120.4 120.5 120.6 120.6 120.7 120.7 120.8 120.9 120.9 121.0 121.0 121.1 121.2 121.2 121.3 121.3 121.4 121.5 121.5 121.6 121.6 121.7 121.8 121.8 121.9 121.9 122.0 122.1 122.1 122.2 122.2 122.3 122.4 122.4 122.5 122.5 122.6 122.7 122.7
110.9 111.0 111.0 111.1 111.1 111.2 111.2 111.3 111.4 111.4 111.5 111.5 111.6 111.7 111.7 111.8 111.9 111.9 112.0 112.0 112.1 112.2 112.2 112.3 112.3 112.4 112.5 112.5 112.6 112.6 112.7 112.8 112.8 112.9 112.9 113.0 113.0 113.1 113.2 113.2 113.3 113.4 113.4 113.5 113.5 113.6 113.7 113.7 113.8 113.8 113.9 114.0 114.0 114.1 114.1 114.2 114.2 114.3 114.4 114.4 114.5 114.5 114.6 114.7 114.7 114.8 114.9 114.9 115.0 115.0 115.1 115.2 115.2 115.3 115.3 115.4 115.5 115.5 115.6 115.6 115.7 115.8 115.8 115.9 115.9 116.0 116.0 116.1 116.2 116.2 116.3 116.4 116.4 116.5 116.5 116.6 116.7 116.7 116.8 116.8 116.9 117.0 117.0 117.1 117.1 117.2 117.2 117.3 117.4 117.4 117.5 117.5 117.6 117.7 117.7 117.8 117.9 117.9 118.0 118.0 118.1 118.2 118.2 118.3 118.3 118.4 118.5 118.5 118.6 118.6 118.7 118.8 118.8 118.9 118.9 119.0 119.0 119.1 119.2 119.2 119.3 119.4 119.4 119.5 119.5 119.6 119.7 119.7 119.8 119.8 119.9 120.0 120.0 120.1 120.1 120.2 120.2 120.3 120.4 120.4 120.5 120.5 120.6 120.7 120.7 120.8 120.9 120.9 121.0 121.0 121.1 121.2 121.2 121.3 121.3 121.4 121.5 121.5 121.6 121.6 121.7 121.8 121.8 121.9 121.9 122.0 122.0 122.1 122.2 122.2 122.3 122.4 122.4 122.5 122.5 122.6 122.7 122.7 122.8 122.8
111.0 111.1 111.1 111.2 111.2 111.3 111.4 111.4 111.5 111.5 111.6 111.7 111.7 111.8 111.8 111.9 112.0 112.0 112.1 112.1 112.2 112.3 112.3 112.4 112.4 112.5 112.6 112.6 112.7 112.7 112.8 112.9 112.9 113.0 113.0 113.1 113.2 113.2 113.3 113.3 113.4 113.5 113.5 113.6 113.6 113.7 113.8 113.8 113.9 113.9 114.0 114.1 114.1 114.2 114.2 114.3 114.4 114.4 114.5 114.5 114.6 114.7 114.7 114.8 114.8 114.9 115.0 115.0 115.1 115.1 115.2 115.3 115.3 115.4 115.4 115.5 115.6 115.6 115.7 115.7 115.8 115.9 115.9 116.0 116.0 116.1 116.2 116.2 116.3 116.3 116.4 116.5 116.5 116.6 116.6 116.7 116.8 116.8 116.9 116.9 117.0 117.1 117.1 117.2 117.2 117.3 117.4 117.4 117.5 117.5 117.6 117.7 117.7 117.8 117.8 117.9 118.0 118.0 118.1 118.1 118.2 118.3 118.3 118.4 118.4 118.5 118.6 118.6 118.7 118.7 118.8 118.9 118.9 119.0 119.0 119.1 119.2 119.2 119.3 119.3 119.4 119.5 119.5 119.6 119.6 119.7 119.8 119.8 119.9 119.9 120.0 120.1 120.1 120.2 120.2 120.3 120.4 120.4 120.5 120.5 120.6 120.7 120.7 120.8 120.8 120.9 121.0 121.0 121.1 121.1 121.2 121.3 121.3 121.4 121.4 121.5 121.6 121.6 121.7 121.7 121.8 121.9 121.9 122.0 122.0 122.1 122.2 122.2 122.3 122.3 122.4 122.5 122.5 122.6 122.6 122.7 122.8 122.8 122.9 122.9
111.1 111.2 111.2 111.3 111.3 111.4 111.5 111.5 111.6 111.6 111.7 111.8 111.8 111.9 112.0 112.0 112.1 112.1 112.2 112.2 112.3 112.4 112.4 112.5 112.5 112.6 112.7 112.7 112.8 112.8 112.9 113.0 113.0 113.1 113.1 113.2 113.3 113.3 113.4 113.5 113.5 113.6 113.6 113.7 113.8 113.8 113.9 113.9 114.0 114.0 114.1 114.2 114.2 114.3 114.3 114.4 114.5 114.5 114.6 114.6 114.7 114.8 114.8 114.9 115.0 115.0 115.1 115.1 115.2 115.2 115.3 115.4 115.4 115.5 115.5 115.6 115.7 115.7 115.8 115.8 115.9 116.0 116.0 116.1 116.1 116.2 116.3 116.3 116.4 116.5 116.5 116.6 116.6 116.7 116.8 116.8 116.9 116.9 117.0 117.0 117.1 117.2 117.2 117.3 117.3 117.4 117.5 117.5 117.6 117.6 117.7 117.8 117.8 117.9 118.0 118.0 118.1 118.1 118.2 118.2 118.3 118.4 118.4 118.5 118.5 118.6 118.7 118.7 118.8 118.8 118.9 119.0 119.0 119.1 119.1 119.2 119.3 119.3 119.4 119.5 119.5 119.6 119.6 119.7 119.8 119.8 119.9 119.9 120.0 120.0 120.1 120.2 120.2 120.3 120.3 120.4 120.5 120.5 120.6 120.6 120.7 120.8 120.8 120.9 121.0 121.0 121.1 121.1 121.2 121.2 121.3 121.4 121.4 121.5 121.5 121.6 121.7 121.7 121.8 121.8 121.9 122.0 122.0 122.1 122.1 122.2 122.3 122.3 122.4 122.5 122.5 122.6 122.6 122.7 122.8 122.8 122.9 122.9 123.0 123.0
111.2 111.3 111.3 111.4 111.5 111.5 111.6 111.6 111.7 111.8 111.8 111.9 111.9 112.0 112.1 112.1 112.2 112.2 112.3 112.4 112.4 112.5 112.5 112.6 112.7 112.7 112.8 112.8 112.9 113.0 113.0 113.1 113.1 113.2 113.3 113.3 113.4 113.4 113.5 113.6 113.6 113.7 113.7 113.8 113.9 113.9 114.0 114.0 114.1 114.2 114.2 114.3 114.3 114.4 114.5 114.5 114.6 114.6 114.7 114.8 114.8 114.9 114.9 115.0 115.1 115.1 115.2 115.2 115.3 115.4 115.4 115.5 115.5 115.6 115.7 115.7 115.8 115.8 115.9 116.0 116.0 116.1 116.1 116.2 116.3 116.3 116.4 116.4 116.5 116.6 116.6 116.7 116.7 116.8 116.9 116.9 117.0 117.0 117.1 117.2 117.2 117.3 117.3 117.4 117.5 117.5 117.6 117.6 117.7 117.8 117.8 117.9 117.9 118.0 118.1 118.1 118.2 118.2 118.3 118.4 118.4 118.5 118.5 118.6 118.7 118.7 118.8 118.8 118.9 119.0 119.0 119.1 119.1 119.2 119.3 119.3 119.4 119.4 119.5 119.6 119.6 119.7 119.7 119.8 119.9 119.9 120.0 120.0 120.1 120.2 120.2 120.3 120.3 120.4 120.5 120.5 120.6 120.6 120.7 120.8 120.8 120.9 120.9 121.0 121.1 121.1 121.2 121.2 121.3 121.4 121.4 121.5 121.5 121.6 121.7 121.7 121.8 121.8 121.9 122.0 122.0 122.1 122.1 122.2 122.3 122.3 122.4 122.4 122.5 122.6 122.6 122.7 122.7 122.8 122.9 122.9 123.0 123.0 123.1 123.2
111.3 111.4 111.4 111.5 111.6 111.6 111.7 111.7 111.8 111.9 111.9 112.0 112.0 112.1 112.2 112.2 112.3 112.3 112.4 112.5 112.5 112.6 112.6 112.7 112.8 112.8 112.9 112.9 113.0 113.1 113.1 113.2 113.2 113.3 113.4 113.4 113.5 113.5 113.6 113.7 113.7 113.8 113.8 113.9 114.0 114.0 114.1 114.1 114.2 114.3 114.3 114.4 114.4 114.5 114.6 114.6 114.7 114.7 114.8 114.9 114.9 115.0 115.0 115.1 115.2 115.2 115.3 115.3 115.4 115.5 115.5 115.6 115.6 115.7 115.8 115.8 115.9 115.9 116.0 116.1 116.1 116.2 116.2 116.3 116.4 116.4 116.5 116.5 116.6 116.7 116.7 116.8 116.8 116.9 117.0 117.0 117.1 117.1 117.2 117.3 117.3 117.4 117.4 117.5 117.6 117.6 117.7 117.7 117.8 117.9 117.9 118.0 118.0 118.1 118.2 118.2 118.3 118.3 118.4 118.5 118.5 118.6 118.6 118.7 118.8 118.8 118.9 118.9 119.0 119.1 119.1 119.2 119.2 119.3 119.4 119.4 119.5 119.5 119.6 119.7 119.7 119.8 119.8 119.9 120.0 120.0 120.1 120.1 120.2 120.3 120.3 120.4 120.4 120.5 120.6 120.6 120.7 120.7 120.8 120.9 120.9 121.0 121.0 121.1 121.2 121.2 121.3 121.3 121.4 121.5 121.5 121.6 121.6 121.7 121.8 121.8 121.9 121.9 122.0 122.1 122.1 122.2 122.2 122.3 122.4 122.4 122.5 122.5 122.6 122.7 122.7 122.8 122.9 122.9 123.0 123.0 123.1 123.2 123.2 123.3
111.4 111.5 111.6 111.6 111.7 111.7 111.8 111.9 111.9 112.0 112.0 112.1 112.2 112.2 112.3 112.3 112.4 112.5 112.5 112.6 112.6 112.7 112.8 112.8 112.9 112.9 113.0 113.1 113.1 113.2 113.2 113.3 113.4 113.4 113.5 113.5 113.6 113.7 113.7 113.8 113.8 113.9 114.0 114.0 114.1 114.1 114.2 114.3 114.3 114.4 114.4 114.5 114.6 114.6 114.7 114.7 114.8 114.9 114.9 115.0 115.0 115.1 115.2 115.2 115.3 115.3 115.4 115.5 115.5 115.6 115.6 115.7 115.8 115.8 115.9 115.9 116.0 116.1 116.1 116.2 116.2 116.3 116.4 116.4 116.5 116.5 116.6 116.7 116.7 116.8 116.8 116.9 117.0 117.0 117.1 117.1 117.2 117.3 117.3 117.4 117.4 117.5 117.6 117.6 117.7 117.7 117.8 117.9 117.9 118.0 118.0 118.1 118.2 118.2 118.3 118.3 118.4 118.5 118.5 118.6 118.6 118.7 118.8 118.8 118.9 118.9 119.0 119.1 119.1 119.2 119.2 119.3 119.4 119.4 119.5 119.5 119.6 119.7 119.7 119.8 119.8 119.9 120.0 120.0 120.1 120.1 120.2 120.3 120.3 120.4 120.4 120.5 120.6 120.6 120.7 120.7 120.8 120.9 120.9 121.0 121.0 121.1 121.2 121.2 121.3 121.3 121.4 121.5 121.5 121.6 121.6 121.7 121.8 121.8 121.9 121.9 122.0 122.1 122.1 122.2 122.2 122.3 122.4 122.4 122.5 122.5 122.6 122.7 122.7 122.8 122.8 122.9 123.0 123.0 123.1 123.1 123.2 123.3 123.3 123.4
111.5 111.6 111.7 111.7 111.8 111.8 111.9 112.0 112.0 112.1 112.2 112.2 112.3 112.3 112.4 112.5 112.5 112.6 112.6 112.7 112.8 112.8 112.9 112.9 113.0 113.0 113.1 113.2 113.2 113.3 113.3 113.4 113.5 113.5 113.6 113.7 113.7 113.8 113.8 113.9 114.0 114.0 114.1 114.1 114.2 114.2 114.3 114.4 114.4 114.5 114.5 114.6 114.7 114.7 114.8 114.8 114.9 115.0 115.0 115.1 115.2 115.2 115.3 115.3 115.4 115.5 115.5 115.6 115.6 115.7 115.8 115.8 115.9 115.9 116.0 116.0 116.1 116.2 116.2 116.3 116.3 116.4 116.5 116.5 116.6 116.7 116.7 116.8 116.8 116.9 117.0 117.0 117.1 117.1 117.2 117.2 117.3 117.4 117.4 117.5 117.5 117.6 117.7 117.7 117.8 117.8 117.9 118.0 118.0 118.1 118.2 118.2 118.3 118.3 118.4 118.5 118.5 118.6 118.6 118.7 118.8 118.8 118.9 118.9 119.0 119.0 119.1 119.2 119.2 119.3 119.3 119.4 119.5 119.5 119.6 119.7 119.7 119.8 119.8 119.9 120.0 120.0 120.1 120.1 120.2 120.2 120.3 120.4 120.4 120.5 120.5 120.6 120.7 120.7 120.8 120.8 120.9 121.0 121.0 121.1 121.2 121.2 121.3 121.3 121.4 121.5 121.5 121.6 121.6 121.7 121.8 121.8 121.9 121.9 122.0 122.0 122.1 122.2 122.2 122.3 122.3 122.4 122.5 122.5 122.6 122.7 122.7 122.8 122.8 122.9 123.0 123.0 123.1 123.1 123.2 123.2 123.3 123.4 123.4 123.5
111.7 111.7 111.8 111.8 111.9 112.0 112.0 112.1 112.1 112.2 112.3 112.3 112.4 112.4 112.5 112.6 112.6 112.7 112.7 112.8 112.9 112.9 113.0 113.0 113.1 113.2 113.2 113.3 113.3 113.4 113.5 113.5 113.6 113.6 113.7 113.8 113.8 113.9 113.9 114.0 114.1 114.1 114.2 114.2 114.3 114.4 114.4 114.5 114.5 114.6 114.7 114.7 114.8 114.8 114.9 115.0 115.0 115.1 115.1 115.2 115.3 115.3 115.4 115.4 115.5 115.6 115.6 115.7 115.7 115.8 115.9 115.9 116.0 116.0 116.1 116.2 116.2 116.3 116.3 116.4 116.5 116.5 116.6 116.6 116.7 116.8 116.8 116.9 116.9 117.0 117.1 117.1 117.2 117.2 117.3 117.4 117.4 117.5 117.5 117.6 117.7 117.7 117.8 117.8 117.9 118.0 118.0 118.1 118.1 118.2 118.3 118.3 118.4 118.4 118.5 118.6 118.6 118.7 118.7 118.8 118.9 118.9 119.0 119.0 119.1 119.2 119.2 119.3 119.3 119.4 119.5 119.5 119.6 119.6 119.7 119.8 119.8 119.9 119.9 120.0 120.1 120.1 120.2 120.2 120.3 120.4 120.4 120.5 120.5 120.6 120.7 120.7 120.8 120.8 120.9 121.0 121.0 121.1 121.1 121.2 121.3 121.3 121.4 121.4 121.5 121.6 121.6 121.7 121.7 121.8 121.9 121.9 122.0 122.0 122.1 122.2 122.2 122.3 122.3 122.4 122.5 122.5 122.6 122.6 122.7 122.8 122.8 122.9 122.9 123.0 123.1 123.1 123.2 123.2 123.3 123.4 123.4 123.5 123.5 123.6
111.8 111.8 111.9 112.0 112.0 112.1 112.1 112.2 112.3 112.3 112.4 112.4 112.5 112.6 112.6 112.7 112.7 112.8 112.9 112.9 113.0 113.0 113.1 113.2 113.2 113.3 113.3 113.4 113.5 113.5 113.6 113.6 113.7 113.8 113.8 113.9 113.9 114.0 114.1 114.1 114.2 114.2 114.3 114.4 114.4 114.5 114.5 114.6 114.7 114.7 114.8 114.8 114.9 115.0 115.0 115.1 115.1 115.2 115.3 115.3 115.4 115.4 115.5 115.6 115.6 115.7 115.7 115.8 115.9 115.9 116.0 116.0 116.1 116.2 116.2 116.3 116.3 116.4 116.5 116.5 116.6 116.6 116.7 116.8 116.8 116.9 116.9 117.0 117.1 117.1 117.2 117.2 117.3 117.4 117.4 117.5 117.5 117.6 117.7 117.7 117.8 117.8 117.9 118.0 118.0 118.1 118.1 118.2 118.3 118.3 118.4 118.4 118.5 118.6 118.6 118.7 118.7 118.8 118.9 118.9 119.0 119.0 119.1 119.2 119.2 119.3 119.3 119.4 119.5 119.5 119.6 119.6 119.7 119.8 119.8 119.9 119.9 120.0 120.1 120.1 120.2 120.2 120.3 120.4 120.4 120.5 120.5 120.6 120.7 120.7 120.8 120.8 120.9 121.0 121.0 121.1 121.1 121.2 121.3 121.3 121.4 121.4 121.5 121.6 121.6 121.7 121.7 121.8 121.9 121.9 122.0 122.0 122.1 122.2 122.2 122.3 122.3 122.4 122.5 122.5 122.6 122.6 122.7 122.8 122.8 122.9 122.9 123.0 123.1 123.1 123.2 123.2 123.3 123.4 123.4 123.5 123.5 123.6 123.7 123.7
111.9 111.9 112.0 112.1 112.1 112.2 112.2 112.3 112.4 112.4 112.5 112.5 112.6 112.7 112.7 112.8 112.8 112.9 113.0 113.0 113.1 113.1 113.2 113.3 113.3 113.4 113.4 113.5 113.6 113.6 113.7 113.7 113.8 113.9 113.9 114.0 114.0 114.1 114.2 114.2 114.3 114.3 114.4 114.5 114.5 114.6 114.6 114.7 114.8 114.8 114.9 114.9 115.0 115.1 115.1 115.2 115.2 115.3 115.4 115.4 115.5 115.5 115.6 115.7 115.7 115.8 115.8 115.9 116.0 116.0 116.1 116.1 116.2 116.3 116.3 116.4 116.4 116.5 116.6 116.6 116.7 116.7 116.8 116.9 116.9 117.0 117.0 117.1 117.2 117.2 117.3 117.3 117.4 117.5 117.5 117.6 117.6 117.7 117.8 117.8 117.9 117.9 118.0 118.1 118.1 118.2 118.2 118.3 118.4 118.4 118.5 118.5 118.6 118.7 118.7 118.8 118.8 118.9 119.0 119.0 119.1 119.1 119.2 119.3 119.3 119.4 119.4 119.5 119.6 119.6 119.7 119.7 119.8 119.9 119.9 120.0 120.0 120.1 120.2 120.2 120.3 120.3 120.4 120.5 120.5 120.6 120.6 120.7 120.8 120.8 120.9 120.9 121.0 121.1 121.1 121.2 121.2 121.3 121.4 121.4 121.5 121.5 121.6 121.7 121.7 121.8 121.8 121.9 122.0 122.0 122.1 122.1 122.2 122.3 122.3 122.4 122.4 122.5 122.6 122.6 122.7 122.7 122.8 122.9 122.9 123.0 123.0 123.1 123.2 123.2 123.3 123.3 123.4 123.5 123.5 123.6 123.6 123.7 123.8 123.8
112.0 112.0 112.1 112.2 112.2 112.3 112.4 112.4 112.5 112.5 112.6 112.7 112.7 112.8 112.8 112.9 113.0 113.0 113.1 113.1 113.2 113.2 113.3 113.4 113.4 113.5 113.5 113.6 113.7 113.7 113.8 113.9 113.9 114.0 114.0 114.1 114.2 114.2 114.3 114.3 114.4 114.5 114.5 114.6 114.6 114.7 114.8 114.8 114.9 114.9 115.0 115.0 115.1 115.2 115.2 115.3 115.4 115.4 115.5 115.5 115.6 115.7 115.7 115.8 115.8 115.9 116.0 116.0 116.1 116.1 116.2 116.2 116.3 116.4 116.4 116.5 116.5 116.6 116.7 116.7 116.8 116.9 116.9 117.0 117.0 117.1 117.2 117.2 117.3 117.3 117.4 117.5 117.5 117.6 117.6 117.7 117.8 117.8 117.9 117.9 118.0 118.0 118.1 118.2 118.2 118.3 118.4 118.4 118.5 118.5 118.6 118.7 118.7 118.8 118.8 118.9 119.0 119.0 119.1 119.1 119.2 119.2 119.3 119.4 119.4 119.5 119.5 119.6 119.7 119.7 119.8 119.9 119.9 120.0 120.0 120.1 120.2 120.2 120.3 120.3 120.4 120.5 120.5 120.6 120.6 120.7 120.8 120.8 120.9 120.9 121.0 121.0 121.1 121.2 121.2 121.3 121.4 121.4 121.5 121.5 121.6 121.7 121.7 121.8 121.8 121.9 122.0 122.0 122.1 122.1 122.2 122.2 122.3 122.4 122.4 122.5 122.5 122.6 122.7 122.7 122.8 122.9 122.9 123.0 123.0 123.1 123.2 123.2 123.3 123.3 123.4 123.5 123.5 123.6 123.6 123.7 123.8 123.8 123.9 123.9
112.1 112.2 112.2 112.3 112.3 112.4 112.5 112.5 112.6 112.6 112.7 112.8 112.8 112.9 112.9 113.0 113.1 113.1 113.2 113.2 113.3 113.4 113.4 113.5 113.5 113.6 113.7 113.7 113.8 113.8 113.9 114.0 114.0 114.1 114.1 114.2 114.3 114.3 114.4 114.4 114.5 114.6 114.6 114.7 114.7 114.8 114.9 114.9 115.0 115.0 115.1 115.2 115.2 115.3 115.3 115.4 115.5 115.5 115.6 115.6 115.7 115.8 115.8 115.9 115.9 116.0 116.1 116.1 116.2 116.2 116.3 116.4 116.4 116.5 116.5 116.6 116.7 116.7 116.8 116.8 116.9 117.0 117.0 117.1 117.1 117.2 117.3 117.3 117.4 117.4 117.5 117.6 117.6 117.7 117.7 117.8 117.9 117.9 118.0 118.0 118.1 118.2 118.2 118.3 118.3 118.4 118.5 118.5 118.6 118.6 118.7 118.8 118.8 118.9 118.9 119.0 119.1 119.1 119.2 119.2 119.3 119.4 119.4 119.5 119.5 119.6 119.7 119.7 119.8 119.8 119.9 120.0 120.0 120.1 120.1 120.2 120.3 120.3 120.4 120.4 120.5 120.6 120.6 120.7 120.7 120.8 120.9 120.9 121.0 121.0 121.1 121.2 121.2 121.3 121.3 121.4 121.5 121.5 121.6 121.6 121.7 121.8 121.8 121.9 121.9 122.0 122.1 122.1 122.2 122.2 122.3 122.4 122.4 122.5 122.5 122.6 122.7 122.7 122.8 122.8 122.9 123.0 123.0 123.1 123.1 123.2 123.3 123.3 123.4 123.4 123.5 123.6 123.6 123.7 123.7 123.8 123.9 123.9 124.0 124.0
112.2 112.3 112.3 112.4 112.5 112.5 112.6 112.6 112.7 112.8 112.8 112.9 112.9 113.0 113.0 113.1 113.2 113.2 113.3 113.3 113.4 113.5 113.5 113.6 113.6 113.7 113.8 113.8 113.9 114.0 114.0 114.1 114.1 114.2 114.2 114.3 114.4 114.4 114.5 114.5 114.6 114.7 114.7 114.8 114.8 114.9 115.0 115.0 115.1 115.1 115.2 115.3 115.3 115.4 115.5 115.5 115.6 115.6 115.7 115.8 115.8 115.9 115.9 116.0 116.0 116.1 116.2 116.2 116.3 116.3 116.4 116.5 116.5 116.6 116.6 116.7 116.8 116.8 116.9 117.0 117.0 117.1 117.1 117.2 117.2 117.3 117.4 117.4 117.5 117.5 117.6 117.7 117.7 117.8 117.8 117.9 118.0 118.0 118.1 118.1 118.2 118.3 118.3 118.4 118.5 118.5 118.6 118.6 118.7 118.8 118.8 118.9 118.9 119.0 119.0 119.1 119.2 119.2 119.3 119.3 119.4 119.5 119.5 119.6 119.6 119.7 119.8 119.8 119.9 120.0 120.0 120.1 120.1 120.2 120.2 120.3 120.4 120.4 120.5 120.5 120.6 120.7 120.7 120.8 120.8 120.9 121.0 121.0 121.1 121.1 121.2 121.3 121.3 121.4 121.5 121.5 121.6 121.6 121.7 121.8 121.8 121.9 121.9 122.0 122.0 122.1 122.2 122.2 122.3 122.3 122.4 122.5 122.5 122.6 122.6 122.7 122.8 122.8 122.9 123.0 123.0 123.1 123.1 123.2 123.2 123.3 123.4 123.4 123.5 123.5 123.6 123.7 123.7 123.8 123.8 123.9 124.0 124.0 124.1 124.1
112.3 112.4 112.4 112.5 112.6 112.6 112.7 112.7 112.8 112.9 112.9 113.0 113.0 113.1 113.2 113.2 113.3 113.3 113.4 113.5 113.5 113.6 113.6 113.7 113.8 113.8 113.9 113.9 114.0 114.1 114.1 114.2 114.2 114.3 114.4 114.4 114.5 114.5 114.6 114.7 114.7 114.8 114.8 114.9 115.0 115.0 115.1 115.1 115.2 115.3 115.3 115.4 115.4 115.5 115.6 115.6 115.7 115.7 115.8 115.9 115.9 116.0 116.0 116.1 116.2 116.2 116.3 116.3 116.4 116.5 116.5 116.6 116.6 116.7 116.8 116.8 116.9 116.9 117.0 117.1 117.1 117.2 117.2 117.3 117.4 117.4 117.5 117.5 117.6 117.7 117.7 117.8 117.8 117.9 118.0 118.0 118.1 118.1 118.2 118.3 118.3 118.4 118.4 118.5 118.6 118.6 118.7 118.7 118.8 118.9 118.9 119.0 119.0 119.1 119.2 119.2 119.3 119.3 119.4 119.5 119.5 119.6 119.6 119.7 119.8 119.8 119.9 119.9 120.0 120.1 120.1 120.2 120.2 120.3 120.4 120.4 120.5 120.5 120.6 120.7 120.7 120.8 120.8 120.9 121.0 121.0 121.1 121.1 121.2 121.3 121.3 121.4 121.4 121.5 121.6 121.6 121.7 121.7 121.8 121.9 121.9 122.0 122.0 122.1 122.2 122.2 122.3 122.3 122.4 122.5 122.5 122.6 122.6 122.7 122.8 122.8 122.9 122.9 123.0 123.1 123.1 123.2 123.2 123.3 123.4 123.4 123.5 123.5 123.6 123.7 123.7 123.8 123.8 123.9 124.0 124.0 124.1 124.1 124.2 124.3
112.4 112.5 112.5 112.6 112.7 112.7 112.8 112.8 112.9 113.0 113.0 113.1 113.1 113.2 113.3 113.3 113.4 113.4 113.5 113.6 113.6 113.7 113.7 113.8 113.9 113.9 114.0 114.0 114.1 114.2 114.2 114.3 114.3 114.4 114.5 114.5 114.6 114.6 114.7 114.8 114.8 114.9 114.9 115.0 115.1 115.1 115.2 115.2 115.3 115.4 115.4 115.5 115.5 115.6 115.7 115.7 115.8 115.8 115.9 116.0 116.0 116.1 116.1 116.2 116.3 116.3 116.4 116.4 116.5 116.6 116.6 116.7 116.7 116.8 116.9 116.9 117.0 117.0 117.1 117.2 117.2 117.3 117.3 117.4 117.5 117.5 117.6 117.6 117.7 117.8 117.8 117.9 117.9 118.0 118.1 118.1 118.2 118.2 118.3 118.4 118.4 118.5 118.5 118.6 118.7 118.7 118.8 118.8 118.9 119.0 119.0 119.1 119.1 119.2 119.3 119.3 119.4 119.4 119.5 119.6 119.6 119.7 119.7 119.8 119.9 119.9 120.0 120.0 120.1 120.2 120.2 120.3 120.3 120.4 120.5 120.5 120.6 120.6 120.7 120.8 120.8 120.9 120.9 121.0 121.1 121.1 121.2 121.2 121.3 121.4 121.4 121.5 121.5 121.6 121.7 121.7 121.8 121.8 121.9 122.0 122.0 122.1 122.1 122.2 122.3 122.3 122.4 122.4 122.5 122.6 122.6 122.7 122.7 122.8 122.9 122.9 123.0 123.0 123.1 123.2 123.2 123.3 123.3 123.4 123.5 123.5 123.6 123.6 123.7 123.8 123.8 123.9 124.0 124.0 124.1 124.1 124.2 124.2 124.3 124.4
112.5 112.6 112.7 112.7 112.8 112.8 112.9 113.0 113.0 113.1 113.1 113.2 113.3 113.3 113.4 113.4 113.5 113.6 113.6 113.7 113.7 113.8 113.9 113.9 114.0 114.0 114.1 114.2 114.2 114.3 114.3 114.4 114.5 114.5 114.6 114.6 114.7 114.8 114.8 114.9 114.9 115.0 115.1 115.1 115.2 115.2 115.3 115.4 115.4 115.5 115.5 115.6 115.7 115.7 115.8 115.8 115.9 116.0 116.0 116.1 116.1 116.2 116.3 116.3 116.4 116.4 116.5 116.6 116.6 116.7 116.7 116.8 116.9 116.9 117.0 117.0 117.1 117.2 117.2 117.3 117.3 117.4 117.5 117.5 117.6 117.6 117.7 117.8 117.8 117.9 117.9 118.0 118.1 118.1 118.2 118.2 118.3 118.4 118.4 118.5 118.5 118.6 118.7 118.7 118.8 118.8 118.9 119.0 119.0 119.1 119.1 119.2 119.3 119.3 119.4 119.4 119.5 119.6 119.6 119.7 119.7 119.8 119.9 119.9 120.0 120.0 120.1 120.2 120.2 120.3 120.3 120.4 120.5 120.5 120.6 120.6 120.7 120.8 120.8 120.9 120.9 121.0 121.1 121.1 121.2 121.2 121.3 121.4 121.4 121.5 121.5 121.6 121.7 121.7 121.8 121.8 121.9 122.0 122.0 122.1 122.1 122.2 122.3 122.3 122.4 122.4 122.5 122.6 122.6 122.7 122.7 122.8 122.9 122.9 123.0 123.0 123.1 123.2 123.2 123.3 123.3 123.4 123.5 123.5 123.6 123.6 123.7 123.8 123.8 123.9 123.9 124.0 124.1 124.1 124.2 124.2 124.3 124.4 124.4 124.5
112.7 112.7 112.8 112.8 112.9 113.0 113.0 113.1 113.1 113.2 113.2 113.3 113.4 113.4 113.5 113.5 113.6 113.7 113.7 113.8 113.8 113.9 114.0 114.0 114.1 114.2 114.2 114.3 114.3 114.4 114.5 114.5 114.6 114.6 114.7 114.8 114.8 114.9 114.9 115.0 115.0 115.1 115.2 115.2 115.3 115.3 115.4 115.5 115.5 115.6 115.7 115.7 115.8 115.8 115.9 116.0 116.0 116.1 116.1 116.2 116.2 116.3 116.4 116.4 116.5 116.5 116.6 116.7 116.7 116.8 116.8 116.9 117.0 117.0 117.1 117.2 117.2 117.3 117.3 117.4 117.5 117.5 117.6 117.6 117.7 117.8 117.8 117.9 117.9 118.0 118.0 118.1 118.2 118.2 118.3 118.3 118.4 118.5 118.5 118.6 118.7 118.7 118.8 118.8 118.9 119.0 119.0 119.1 119.1 119.2 119.2 119.3 119.4 119.4 119.5 119.5 119.6 119.7 119.7 119.8 119.8 119.9 120.0 120.0 120.1 120.2 120.2 120.3 120.3 120.4 120.5 120.5 120.6 120.6 120.7 120.8 120.8 120.9 120.9 121.0 121.0 121.1 121.2 121.2 121.3 121.3 121.4 121.5 121.5 121.6 121.7 121.7 121.8 121.8 121.9 122.0 122.0 122.1 122.1 122.2 122.2 122.3 122.4 122.4 122.5 122.5 122.6 122.7 122.7 122.8 122.8 122.9 123.0 123.0 123.1 123.2 123.2 123.3 123.3 123.4 123.5 123.5 123.6 123.6 123.7 123.8 123.8 123.9 123.9 124.0 124.0 124.1 124.2 124.2 124.3 124.3 124.4 124.5 124.5 124.6
112.8 112.8 112.9 112.9 113.0 113.1 113.1 113.2 113.2 113.3 113.4 113.4 113.5 113.5 113.6 113.7 113.7 113.8 113.8 113.9 114.0 114.0 114.1 114.1 114.2 114.3 114.3 114.4 114.4 114.5 114.6 114.6 114.7 114.7 114.8 114.9 114.9 115.0 115.0 115.1 115.2 115.2 115.3 115.3 115.4 115.5 115.5 115.6 115.6 115.7 115.8 115.8 115.9 115.9 116.0 116.1 116.1 116.2 116.2 116.3 116.4 116.4 116.5 116.5 116.6 116.7 116.7 116.8 116.8 116.9 117.0 117.0 117.1 117.1 117.2 117.3 117.3 117.4 117.4 117.5 117.6 117.6 117.7 117.7 117.8 117.9 117.9 118.0 118.0 118.1 118.2 118.2 118.3 118.3 118.4 118.5 118.5 118.6 118.6 118.7 118.8 118.8 118.9 118.9 119.0 119.1 119.1 119.2 119.2 119.3 119.4 119.4 119.5 119.5 119.6 119.7 119.7 119.8 119.8 119.9 120.0 120.0 120.1 120.1 120.2 120.3 120.3 120.4 120.4 120.5 120.6 120.6 120.7 120.7 120.8 120.9 120.9 121.0 121.0 121.1 121.2 121.2 121.3 121.3 121.4 121.5 121.5 121.6 121.6 121.7 121.8 121.8 121.9 121.9 122.0 122.1 122.1 122.2 122.2 122.3 122.4 122.4 122.5 122.5 122.6 122.7 122.7 122.8 122.8 122.9 123.0 123.0 123.1 123.1 123.2 123.3 123.3 123.4 123.4 123.5 123.6 123.6 123.7 123.7 123.8 123.9 123.9 124.0 124.0 124.1 124.2 124.2 124.3 124.3 124.4 124.5 124.5 124.6 124.6 124.7
112.9 112.9 113.0 113.1 113.1 113.2 113.2 113.3 113.4 113.4 113.5 113.5 113.6 113.7 113.7 113.8 113.8 113.9 114.0 114.0 114.1 114.1 114.2 114.3 114.3 114.4 114.4 114.5 114.6 114.6 114.7 114.7 114.8 114.9 114.9 115.0 115.0 115.1 115.2 115.2 115.3 115.3 115.4 115.5 115.5 115.6 115.6 115.7 115.8 115.8 115.9 115.9 116.0 116.1 116.1 116.2 116.2 116.3 116.4 116.4 116.5 116.5 116.6 116.7 116.7 116.8 116.8 116.9 117.0 117.0 117.1 117.1 117.2 117.3 117.3 117.4 117.4 117.5 117.6 117.6 117.7 117.7 117.8 117.9 117.9 118.0 118.0 118.1 118.2 118.2 118.3 118.3 118.4 118.5 118.5 118.6 118.6 118.7 118.8 118.8 118.9 118.9 119.0 119.1 119.1 119.2 119.2 119.3 119.4 119.4 119.5 119.5 119.6 119.7 119.7 119.8 119.8 119.9 120.0 120.0 120.1 120.1 120.2 120.3 120.3 120.4 120.4 120.5 120.6 120.6 120.7 120.7 120.8 120.9 120.9 121.0 121.0 121.1 121.2 121.2 121.3 121.3 121.4 121.5 121.5 121.6 121.6 121.7 121.8 121.8 121.9 121.9 122.0 122.1 122.1 122.2 122.2 122.3 122.4 122.4 122.5 122.5 122.6 122.7 122.7 122.8 122.8 122.9 123.0 123.0 123.1 123.1 123.2 123.3 123.3 123.4 123.4 123.5 123.6 123.6 123.7 123.7 123.8 123.9 123.9 124.0 124.0 124.1 124.2 124.2 124.3 124.3 124.4 124.5 124.5 124.6 124.6 124.7 124.8 124.8
113.0 113.0 113.1 113.2 113.2 113.3 113.3 113.4 113.5 113.5 113.6 113.6 113.7 113.8 113.8 113.9 113.9 114.0 114.1 114.1 114.2 114.2 114.3 114.4 114.4 114.5 114.5 114.6 114.7 114.7 114.8 114.8 114.9 115.0 115.0 115.1 115.1 115.2 115.3 115.3 115.4 115.4 115.5 115.6 115.6 115.7 115.7 115.8 115.9 115.9 116.0 116.0 116.1 116.2 116.2 116.3 116.3 116.4 116.5 116.5 116.6 116.6 116.7 116.8 116.8 116.9 116.9 117.0 117.1 117.1 117.2 117.2 117.3 117.4 117.4 117.5 117.5 117.6 117.7 117.7 117.8 117.8 117.9 118.0 118.0 118.1 118.1 118.2 118.3 118.3 118.4 118.4 118.5 118.6 118.6 118.7 118.7 118.8 118.9 118.9 119.0 119.0 119.1 119.2 119.2 119.3 119.3 119.4 119.5 119.5 119.6 119.6 119.7 119.8 119.8 119.9 119.9 120.0 120.1 120.1 120.2 120.2 120.3 120.4 120.4 120.5 120.5 120.6 120.7 120.7 120.8 120.8 120.9 121.0 121.0 121.1 121.1 121.2 121.3 121.3 121.4 121.4 121.5 121.6 121.6 121.7 121.7 121.8 121.9 121.9 122.0 122.0 122.1 122.2 122.2 122.3 122.3 122.4 122.5 122.5 122.6 122.6 122.7 122.8 122.8 122.9 122.9 123.0 123.1 123.1 123.2 123.2 123.3 123.4 123.4 123.5 123.5 123.6 123.7 123.7 123.8 123.8 123.9 124.0 124.0 124.1 124.1 124.2 124.3 124.3 124.4 124.4 124.5 124.6 124.6 124.7 124.7 124.8 124.9 124.9
113.1 113.2 113.2 113.3 113.3 113.4 113.5 113.5 113.6 113.6 113.7 113.8 113.8 113.9 113.9 114.0 114.0 114.1 114.2 114.2 114.3 114.4 114.4 114.5 114.5 114.6 114.7 114.7 114.8 114.8 114.9 115.0 115.0 115.1 115.1 115.2 115.2 115.3 115.4 115.4 115.5 115.5 115.6 115.7 115.7 115.8 115.9 115.9 116.0 116.0 116.1 116.2 116.2 116.3 116.3 116.4 116.5 116.5 116.6 116.6 116.7 116.8 116.8 116.9 116.9 117.0 117.0 117.1 117.2 117.2 117.3 117.4 117.4 117.5 117.5 117.6 117.7 117.7 117.8 117.8 117.9 118.0 118.0 118.1 118.1 118.2 118.2 118.3 118.4 118.4 118.5 118.5 118.6 118.7 118.7 118.8 118.9 118.9 119.0 119.0 119.1 119.2 119.2 119.3 119.3 119.4 119.5 119.5 119.6 119.6 119.7 119.8 119.8 119.9 119.9 120.0 120.0 120.1 120.2 120.2 120.3 120.4 120.4 120.5 120.5 120.6 120.7 120.7 120.8 120.8 120.9 121.0 121.0 121.1 121.1 121.2 121.2 121.3 121.4 121.4 121.5 121.5 121.6 121.7 121.7 121.8 121.9 121.9 122.0 122.0 122.1 122.2 122.2 122.3 122.3 122.4 122.5 122.5 122.6 122.6 122.7 122.8 122.8 122.9 122.9 123.0 123.0 123.1 123.2 123.2 123.3 123.4 123.4 123.5 123.5 123.6 123.7 123.7 123.8 123.8 123.9 124.0 124.0 124.1 124.1 124.2 124.2 124.3 124.4 124.4 124.5 124.5 124.6 124.7 124.7 124.8 124.9 124.9 125.0 125.0
113.2 113.3 113.3 113.4 113.4 113.5 113.6 113.6 113.7 113.7 113.8 113.9 113.9 114.0 114.0 114.1 114.2 114.2 114.3 114.3 114.4 114.5 114.5 114.6 114.6 114.7 114.8 114.8 114.9 114.9 115.0 115.1 115.1 115.2 115.2 115.3 115.4 115.4 115.5 115.5 115.6 115.7 115.7 115.8 115.8 115.9 116.0 116.0 116.1 116.1 116.2 116.3 116.3 116.4 116.4 116.5 116.6 116.6 116.7 116.7 116.8 116.9 116.9 117.0 117.0 117.1 117.2 117.2 117.3 117.3 117.4 117.5 117.5 117.6 117.6 117.7 117.8 117.8 117.9 117.9 118.0 118.1 118.1 118.2 118.2 118.3 118.4 118.4 118.5 118.5 118.6 118.7 118.7 118.8 118.8 118.9 119.0 119.0 119.1 119.1 119.2 119.3 119.3 119.4 119.4 119.5 119.6 119.6 119.7 119.7 119.8 119.9 119.9 120.0 120.0 120.1 120.2 120.2 120.3 120.3 120.4 120.5 120.5 120.6 120.6 120.7 120.8 120.8 120.9 120.9 121.0 121.1 121.1 121.2 121.2 121.3 121.4 121.4 121.5 121.5 121.6 121.7 121.7 121.8 121.8 121.9 122.0 122.0 122.1 122.1 122.2 122.3 122.3 122.4 122.4 122.5 122.6 122.6 122.7 122.7 122.8 122.9 122.9 123.0 123.0 123.1 123.2 123.2 123.3 123.3 123.4 123.5 123.5 123.6 123.6 123.7 123.8 123.8 123.9 123.9 124.0 124.1 124.1 124.2 124.2 124.3 124.4 124.4 124.5 124.5 124.6 124.7 124.7 124.8 124.8 124.9 125.0 125.0 125.1 125.1
113.3 113.4 113.4 113.5 113.5 113.6 113.7 113.7 113.8 113.8 113.9 114.0 114.0 114.1 114.1 114.2 114.3 114.3 114.4 114.5 114.5 114.6 114.6 114.7 114.8 114.8 114.9 114.9 115.0 115.0 115.1 115.2 115.2 115.3 115.3 115.4 115.5 115.5 115.6 115.6 115.7 115.8 115.8 115.9 116.0 116.0 116.1 116.1 116.2 116.2 116.3 116.4 116.4 116.5 116.5 116.6 116.7 116.7 116.8 116.8 116.9 117.0 117.0 117.1 117.1 117.2 117.3 117.3 117.4 117.5 117.5 117.6 117.6 117.7 117.8 117.8 117.9 117.9 118.0 118.0 118.1 118.2 118.2 118.3 118.3 118.4 118.5 118.5 118.6 118.6 118.7 118.8 118.8 118.9 119.0 119.0 119.1 119.1 119.2 119.2 119.3 119.4 119.4 119.5 119.5 119.6 119.7 119.7 119.8 119.8 119.9 120.0 120.0 120.1 120.1 120.2 120.3 120.3 120.4 120.5 120.5 120.6 120.6 120.7 120.8 120.8 120.9 120.9 121.0 121.0 121.1 121.2 121.2 121.3 121.3 121.4 121.5 121.5 121.6 121.6 121.7 121.8 121.8 121.9 122.0 122.0 122.1 122.1 122.2 122.2 122.3 122.4 122.4 122.5 122.5 122.6 122.7 122.7 122.8 122.8 122.9 123.0 123.0 123.1 123.1 123.2 123.3 123.3 123.4 123.5 123.5 123.6 123.6 123.7 123.8 123.8 123.9 123.9 124.0 124.0 124.1 124.2 124.2 124.3 124.3 124.4 124.5 124.5 124.6 124.6 124.7 124.8 124.8 124.9 125.0 125.0 125.1 125.1 125.2 125.2
113.4 113.5 113.5 113.6 113.7 113.7 113.8 113.8 113.9 114.0 114.0 114.1 114.1 114.2 114.3 114.3 114.4 114.4 114.5 114.6 114.6 114.7 114.7 114.8 114.9 114.9 115.0 115.0 115.1 115.2 115.2 115.3 115.3 115.4 115.5 115.5 115.6 115.6 115.7 115.8 115.8 115.9 115.9 116.0 116.1 116.1 116.2 116.2 116.3 116.4 116.4 116.5 116.5 116.6 116.7 116.7 116.8 116.8 116.9 117.0 117.0 117.1 117.1 117.2 117.3 117.3 117.4 117.4 117.5 117.6 117.6 117.7 117.7 117.8 117.9 117.9 118.0 118.0 118.1 118.2 118.2 118.3 118.3 118.4 118.5 118.5 118.6 118.6 118.7 118.8 118.8 118.9 118.9 119.0 119.1 119.1 119.2 119.2 119.3 119.4 119.4 119.5 119.5 119.6 119.7 119.7 119.8 119.8 119.9 120.0 120.0 120.1 120.1 120.2 120.3 120.3 120.4 120.4 120.5 120.6 120.6 120.7 120.7 120.8 120.9 120.9 121.0 121.0 121.1 121.2 121.2 121.3 121.3 121.4 121.5 121.5 121.6 121.6 121.7 121.8 121.8 121.9 121.9 122.0 122.1 122.1 122.2 122.2 122.3 122.4 122.4 122.5 122.5 122.6 122.7 122.7 122.8 122.8 122.9 123.0 123.0 123.1 123.1 123.2 123.3 123.3 123.4 123.4 123.5 123.6 123.6 123.7 123.7 123.8 123.9 123.9 124.0 124.0 124.1 124.2 124.2 124.3 124.3 124.4 124.5 124.5 124.6 124.6 124.7 124.8 124.8 124.9 124.9 125.0 125.1 125.1 125.2 125.2 125.3 125.4
113.5 113.6 113.6 113.7 113.8 113.8 113.9 113.9 114.0 114.1 114.1 114.2 114.2 114.3 114.4 114.4 114.5 114.5 114.6 114.7 114.7 114.8 114.8 114.9 115.0 115.0 115.1 115.1 115.2 115.3 115.3 115.4 115.4 115.5 115.6 115.6 115.7 115.7 115.8 115.9 115.9 116.0 116.0 116.1 116.2 116.2 116.3 116.3 116.4 116.5 116.5 116.6 116.6 116.7 116.8 116.8 116.9 116.9 117.0 117.1 117.1 117.2 117.2 117.3 117.4 117.4 117.5 117.5 117.6 117.7 117.7 117.8 117.8 117.9 118.0 118.0 118.1 118.1 118.2 118.3 118.3 118.4 118.4 118.5 118.6 118.6 118.7 118.7 118.8 118.9 118.9 119.0 119.0 119.1 119.2 119.2 119.3 119.3 119.4 119.5 119.5 119.6 119.6 119.7 119.8 119.8 119.9 119.9 120.0 120.1 120.1 120.2 120.2 120.3 120.4 120.4 120.5 120.5 120.6 120.7 120.7 120.8 120.8 120.9 121.0 121.0 121.1 121.1 121.2 121.3 121.3 121.4 121.4 121.5 121.6 121.6 121.7 121.7 121.8 121.9 121.9 122.0 122.0 122.1 122.2 122.2 122.3 122.3 122.4 122.5 122.5 122.6 122.6 122.7 122.8 122.8 122.9 122.9 123.0 123.1 123.1 123.2 123.2 123.3 123.4 123.4 123.5 123.5 123.6 123.7 123.7 123.8 123.8 123.9 124.0 124.0 124.1 124.1 124.2 124.3 124.3 124.4 124.4 124.5 124.6 124.6 124.7 124.7 124.8 124.9 124.9 125.0 125.1 125.1 125.2 125.2 125.3 125.4 125.4 125.5
113.6 113.7 113.8 113.8 113.9 113.9 114.0 114.1 114.1 114.2 114.2 114.3 114.4 114.4 114.5 114.5 114.6 114.7 114.7 114.8 114.8 114.9 115.0 115.0 115.1 115.1 115.2 115.3 115.3 115.4 115.4 115.5 115.6 115.6 115.7 115.7 115.8 115.9 115.9 116.0 116.0 116.1 116.2 116.2 116.3 116.3 116.4 116.5 116.5 116.6 116.6 116.7 116.8 116.8 116.9 116.9 117.0 117.1 117.1 117.2 117.2 117.3 117.4 117.4 117.5 117.5 117.6 117.7 117.7 117.8 117.8 117.9 118.0 118.0 118.1 118.1 118.2 118.3 118.3 118.4 118.4 118.5 118.6 118.6 118.7 118.7 118.8 118.9 118.9 119.0 119.0 119.1 119.2 119.2 119.3 119.3 119.4 119.5 119.5 119.6 119.6 119.7 119.8 119.8 119.9 119.9 120.0 120.1 120.1 120.2 120.2 120.3 120.4 120.4 120.5 120.5 120.6 120.7 120.7 120.8 120.8 120.9 121.0 121.0 121.1 121.1 121.2 121.3 121.3 121.4 121.4 121.5 121.6 121.6 121.7 121.7 121.8 121.9 121.9 122.0 122.0 122.1 122.2 122.2 122.3 122.3 122.4 122.5 122.5 122.6 122.6 122.7 122.8 122.8 122.9 122.9 123.0 123.1 123.1 123.2 123.2 123.3 123.4 123.4 123.5 123.5 123.6 123.7 123.7 123.8 123.8 123.9 124.0 124.0 124.1 124.1 124.2 124.3 124.3 124.4 124.4 124.5 124.6 124.6 124.7 124.7 124.8 124.9 124.9 125.0 125.0 125.1 125.2 125.2 125.3 125.3 125.4 125.5 125.5 125.6
113.8 113.8 113.9 113.9 114.0 114.0 114.1 114.2 114.2 114.3 114.3 114.4 114.5 114.5 114.6 114.7 114.7 114.8 114.8 114.9 115.0 115.0 115.1 115.1 115.2 115.2 115.3 115.4 115.4 115.5 115.5 115.6 115.7 115.7 115.8 115.8 115.9 116.0 116.0 116.1 116.2 116.2 116.3 116.3 116.4 116.5 116.5 116.6 116.6 116.7 116.8 116.8 116.9 116.9 117.0 117.0 117.1 117.2 117.2 117.3 117.3 117.4 117.5 117.5 117.6 117.7 117.7 117.8 117.8 117.9 118.0 118.0 118.1 118.1 118.2 118.2 118.3 118.4 118.4 118.5 118.5 118.6 118.7 118.7 118.8 118.8 118.9 119.0 119.0 119.1 119.2 119.2 119.3 119.3 119.4 119.5 119.5 119.6 119.6 119.7 119.8 119.8 119.9 119.9 120.0 120.0 120.1 120.2 120.2 120.3 120.3 120.4 120.5 120.5 120.6 120.7 120.7 120.8 120.8 120.9 121.0 121.0 121.1 121.1 121.2 121.2 121.3 121.4 121.4 121.5 121.5 121.6 121.7 121.7 121.8 121.8 121.9 122.0 122.0 122.1 122.2 122.2 122.3 122.3 122.4 122.5 122.5 122.6 122.6 122.7 122.8 122.8 122.9 122.9 123.0 123.0 123.1 123.2 123.2 123.3 123.3 123.4 123.5 123.5 123.6 123.7 123.7 123.8 123.8 123.9 124.0 124.0 124.1 124.1 124.2 124.2 124.3 124.4 124.4 124.5 124.5 124.6 124.7 124.7 124.8 124.8 124.9 125.0 125.0 125.1 125.2 125.2 125.3 125.3 125.4 125.5 125.5 125.6 125.6 125.7
113.9 113.9 114.0 114.0 114.1 114.2 114.2 114.3 114.3 114.4 114.5 114.5 114.6 114.6 114.7 114.8 114.8 114.9 114.9 115.0 115.1 115.1 115.2 115.2 115.3 115.4 115.4 115.5 115.5 115.6 115.7 115.7 115.8 115.8 115.9 116.0 116.0 116.1 116.1 116.2 116.3 116.3 116.4 116.4 116.5 116.6 116.6 116.7 116.7 116.8 116.9 116.9 117.0 117.0 117.1 117.2 117.2 117.3 117.3 117.4 117.5 117.5 117.6 117.6 117.7 117.8 117.8 117.9 117.9 118.0 118.1 118.1 118.2 118.2 118.3 118.4 118.4 118.5 118.5 118.6 118.7 118.7 118.8 118.8 118.9 119.0 119.0 119.1 119.1 119.2 119.3 119.3 119.4 119.4 119.5 119.6 119.6 119.7 119.7 119.8 119.9 119.9 120.0 120.0 120.1 120.2 120.2 120.3 120.3 120.4 120.5 120.5 120.6 120.6 120.7 120.8 120.8 120.9 120.9 121.0 121.1 121.1 121.2 121.2 121.3 121.4 121.4 121.5 121.5 121.6 121.7 121.7 121.8 121.8 121.9 122.0 122.0 122.1 122.1 122.2 122.3 122.3 122.4 122.4 122.5 122.6 122.6 122.7 122.7 122.8 122.9 122.9 123.0 123.0 123.1 123.2 123.2 123.3 123.3 123.4 123.5 123.5 123.6 123.6 123.7 123.8 123.8 123.9 123.9 124.0 124.1 124.1 124.2 124.2 124.3 124.4 124.4 124.5 124.5 124.6 124.7 124.7 124.8 124.8 124.9 125.0 125.0 125.1 125.1 125.2 125.3 125.3 125.4 125.4 125.5 125.6 125.6 125.7 125.7 125.8
114.0 114.0 114.1 114.2 114.2 114.3 114.3 114.4 114.5 114.5 114.6 114.6 114.7 114.8 114.8 114.9 114.9 115.0 115.1 115.1 115.2 115.2 115.3 115.4 115.4 115.5 115.5 115.6 115.7 115.7 115.8 115.8 115.9 116.0 116.0 116.1 116.1 116.2 116.3 116.3 116.4 116.4 116.5 116.6 116.6 116.7 116.7 116.8 116.9 116.9 117.0 117.0 117.1 117.2 117.2 117.3 117.3 117.4 117.5 117.5 117.6 117.6 117.7 117.8 117.8 117.9 117.9 118.0 118.1 118.1 118.2 118.2 118.3 118.4 118.4 118.5 118.5 118.6 118.7 118.7 118.8 118.8 118.9 119.0 119.0 119.1 119.1 119.2 119.3 119.3 119.4 119.4 119.5 119.6 119.6 119.7 119.7 119.8 119.9 119.9 120.0 120.0 120.1 120.2 120.2 120.3 120.3 120.4 120.5 120.5 120.6 120.6 120.7 120.8 120.8 120.9 120.9 121.0 121.1 121.1 121.2 121.2 121.3 121.4 121.4 121.5 121.5 121.6 121.7 121.7 121.8 121.8 121.9 122.0 122.0 122.1 122.1 122.2 122.3 122.3 122.4 122.4 122.5 122.6 122.6 122.7 122.7 122.8 122.9 122.9 123.0 123.0 123.1 123.2 123.2 123.3 123.3 123.4 123.5 123.5 123.6 123.6 123.7 123.8 123.8 123.9 123.9 124.0 124.1 124.1 124.2 124.2 124.3 124.4 124.4 124.5 124.5 124.6 124.7 124.7 124.8 124.8 124.9 125.0 125.0 125.1 125.1 125.2 125.3 125.3 125.4 125.4 125.5 125.6 125.6 125.7 125.7 125.8 125.9 125.9
114.1 114.1 114.2 114.3 114.3 114.4 114.4 114.5 114.6 114.6 114.7 114.7 114.8 114.9 114.9 115.0 115.0 115.1 115.2 115.2 115.3 115.3 115.4 115.5 115.5 115.6 115.6 115.7 115.8 115.8 115.9 115.9 116.0 116.1 116.1 116.2 116.2 116.3 116.4 116.4 116.5 116.5 116.6 116.7 116.7 116.8 116.8 116.9 117.0 117.0 117.1 117.1 117.2 117.3 117.3 117.4 117.4 117.5 117.6 117.6 117.7 117.7 117.8 117.9 117.9 118.0 118.0 118.1 118.2 118.2 118.3 118.3 118.4 118.5 118.5 118.6 118.6 118.7 118.8 118.8 118.9 118.9 119.0 119.1 119.1 119.2 119.2 119.3 119.4 119.4 119.5 119.5 119.6 119.7 119.7 119.8 119.8 119.9 120.0 120.0 120.1 120.1 120.2 120.3 120.3 120.4 120.4 120.5 120.6 120.6 120.7 120.7 120.8 120.9 120.9 121.0 121.0 121.1 121.2 121.2 121.3 121.3 121.4 121.5 121.5 121.6 121.6 121.7 121.8 121.8 121.9 121.9 122.0 122.1 122.1 122.2 122.2 122.3 122.4 122.4 122.5 122.5 122.6 122.7 122.7 122.8 122.8 122.9 123.0 123.0 123.1 123.1 123.2 123.3 123.3 123.4 123.4 123.5 123.6 123.6 123.7 123.7 123.8 123.9 123.9 124.0 124.0 124.1 124.2 124.2 124.3 124.3 124.4 124.5 124.5 124.6 124.6 124.7 124.8 124.8 124.9 124.9 125.0 125.1 125.1 125.2 125.2 125.3 125.4 125.4 125.5 125.5 125.6 125.7 125.7 125.8 125.8 125.9 126.0 126.0
114.2 114.2 114.3 114.4 114.4 114.5 114.5 114.6 114.7 114.7 114.8 114.9 114.9 115.0 115.0 115.1 115.2 115.2 115.3 115.3 115.4 115.5 115.5 115.6 115.6 115.7 115.8 115.8 115.9 115.9 116.0 116.0 116.1 116.2 116.2 116.3 116.4 116.4 116.5 116.5 116.6 116.7 116.7 116.8 116.8 116.9 117.0 117.0 117.1 117.1 117.2 117.2 117.3 117.4 117.4 117.5 117.5 117.6 117.7 117.7 117.8 117.9 117.9 118.0 118.0 118.1 118.2 118.2 118.3 118.3 118.4 118.5 118.5 118.6 118.6 118.7 118.8 118.8 118.9 118.9 119.0 119.0 119.1 119.2 119.2 119.3 119.4 119.4 119.5 119.5 119.6 119.7 119.7 119.8 119.8 119.9 120.0 120.0 120.1 120.1 120.2 120.2 120.3 120.4 120.4 120.5 120.5 120.6 120.7 120.7 120.8 120.9 120.9 121.0 121.0 121.1 121.2 121.2 121.3 121.3 121.4 121.5 121.5 121.6 121.6 121.7 121.8 121.8 121.9 121.9 122.0 122.0 122.1 122.2 122.2 122.3 122.4 122.4 122.5 122.5 122.6 122.7 122.7 122.8 122.8 122.9 123.0 123.0 123.1 123.1 123.2 123.2 123.3 123.4 123.4 123.5 123.5 123.6 123.7 123.7 123.8 123.9 123.9 124.0 124.0 124.1 124.2 124.2 124.3 124.3 124.4 124.5 124.5 124.6 124.6 124.7 124.8 124.8 124.9 124.9 125.0 125.0 125.1 125.2 125.2 125.3 125.4 125.4 125.5 125.5 125.6 125.7 125.7 125.8 125.8 125.9 126.0 126.0 126.1 126.1
114.3 114.4 114.4 114.5 114.5 114.6 114.7 114.7 114.8 114.8 114.9 115.0 115.0 115.1 115.1 115.2 115.3 115.3 115.4 115.4 115.5 115.6 115.6 115.7 115.7 115.8 115.9 115.9 116.0 116.0 116.1 116.2 116.2 116.3 116.3 116.4 116.5 116.5 116.6 116.6 116.7 116.8 116.8 116.9 116.9 117.0 117.1 117.1 117.2 117.2 117.3 117.4 117.4 117.5 117.5 117.6 117.7 117.7 117.8 117.8 117.9 118.0 118.0 118.1 118.1 118.2 118.3 118.3 118.4 118.4 118.5 118.6 118.6 118.7 118.7 118.8 118.9 118.9 119.0 119.0 119.1 119.2 119.2 119.3 119.3 119.4 119.5 119.5 119.6 119.6 119.7 119.8 119.8 119.9 119.9 120.0 120.1 120.1 120.2 120.2 120.3 120.4 120.4 120.5 120.5 120.6 120.7 120.7 120.8 120.8 120.9 121.0 121.0 121.1 121.1 121.2 121.3 121.3 121.4 121.4 121.5 121.6 121.6 121.7 121.7 121.8 121.9 121.9 122.0 122.0 122.1 122.2 122.2 122.3 122.3 122.4 122.5 122.5 122.6 122.6 122.7 122.8 122.8 122.9 122.9 123.0 123.1 123.1 123.2 123.2 123.3 123.4 123.4 123.5 123.5 123.6 123.7 123.7 123.8 123.8 123.9 124.0 124.0 124.1 124.1 124.2 124.3 124.3 124.4 124.4 124.5 124.6 124.6 124.7 124.7 124.8 124.9 124.9 125.0 125.0 125.1 125.2 125.2 125.3 125.3 125.4 125.5 125.5 125.6 125.6 125.7 125.8 125.8 125.9 125.9 126.0 126.1 126.1 126.2 126.2
114.4 114.5 114.5 114.6 114.6 114.7 114.8 114.8 114.9 115.0 115.0 115.1 115.1 115.2 115.2 115.3 115.4 115.4 115.5 115.5 115.6 115.7 115.7 115.8 115.8 115.9 116.0 116.0 116.1 116.1 116.2 116.3 116.3 116.4 116.5 116.5 116.6 116.6 116.7 116.8 116.8 116.9 116.9 117.0 117.0 117.1 117.2 117.2 117.3 117.3 117.4 117.5 117.5 117.6 117.6 117.7 117.8 117.8 117.9 118.0 118.0 118.1 118.1 118.2 118.2 118.3 118.4 118.4 118.5 118.5 118.6 118.7 118.7 118.8 118.8 118.9 119.0 119.0 119.1 119.1 119.2 119.3 119.3 119.4 119.5 119.5 119.6 119.6 119.7 119.8 119.8 119.9 119.9 120.0 120.0 120.1 120.2 120.2 120.3 120.3 120.4 120.5 120.5 120.6 120.6 120.7 120.8 120.8 120.9 121.0 121.0 121.1 121.1 121.2 121.2 121.3 121.4 121.4 121.5 121.5 121.6 121.7 121.7 121.8 121.8 121.9 122.0 122.0 122.1 122.1 122.2 122.3 122.3 122.4 122.5 122.5 122.6 122.6 122.7 122.8 122.8 122.9 122.9 123.0 123.0 123.1 123.2 123.2 123.3 123.3 123.4 123.5 123.5 123.6 123.6 123.7 123.8 123.8 123.9 124.0 124.0 124.1 124.1 124.2 124.2 124.3 124.4 124.4 124.5 124.5 124.6 124.7 124.7 124.8 124.8 124.9 125.0 125.0 125.1 125.1 125.2 125.3 125.3 125.4 125.5 125.5 125.6 125.6 125.7 125.8 125.8 125.9 125.9 126.0 126.0 126.1 126.2 126.2 126.3 126.3
114.5 114.6 114.6 114.7 114.8 114.8 114.9 114.9 115.0 115.1 115.1 115.2 115.2 115.3 115.4 115.4 115.5 115.5 115.6 115.7 115.7 115.8 115.8 115.9 116.0 116.0 116.1 116.1 116.2 116.3 116.3 116.4 116.4 116.5 116.6 116.6 116.7 116.7 116.8 116.9 116.9 117.0 117.0 117.1 117.2 117.2 117.3 117.3 117.4 117.5 117.5 117.6 117.6 117.7 117.8 117.8 117.9 117.9 118.0 118.1 118.1 118.2 118.2 118.3 118.4 118.4 118.5 118.5 118.6 118.7 118.7 118.8 118.8 118.9 119.0 119.0 119.1 119.1 119.2 119.3 119.3 119.4 119.4 119.5 119.6 119.6 119.7 119.7 119.8 119.9 119.9 120.0 120.0 120.1 120.2 120.2 120.3 120.3 120.4 120.5 120.5 120.6 120.6 120.7 120.8 120.8 120.9 120.9 121.0 121.1 121.1 121.2 121.2 121.3 121.4 121.4 121.5 121.5 121.6 121.7 121.7 121.8 121.8 121.9 122.0 122.0 122.1 122.1 122.2 122.3 122.3 122.4 122.4 122.5 122.6 122.6 122.7 122.7 122.8 122.9 122.9 123.0 123.0 123.1 123.2 123.2 123.3 123.3 123.4 123.5 123.5 123.6 123.6 123.7 123.8 123.8 123.9 123.9 124.0 124.1 124.1 124.2 124.2 124.3 124.4 124.4 124.5 124.5 124.6 124.7 124.7 124.8 124.8 124.9 125.0 125.0 125.1 125.1 125.2 125.3 125.3 125.4 125.4 125.5 125.6 125.6 125.7 125.7 125.8 125.9 125.9 126.0 126.0 126.1 126.2 126.2 126.3 126.3 126.4 126.5
114.6 114.7 114.7 114.8 114.9 114.9 115.0 115.0 115.1 115.2 115.2 115.3 115.3 115.4 115.5 115.5 115.6 115.6 115.7 115.8 115.8 115.9 115.9 116.0 116.1 116.1 116.2 116.2 116.3 116.4 116.4 116.5 116.5 116.6 116.7 116.7 116.8 116.8 116.9 117.0 117.0 117.1 117.1 117.2 117.3 117.3 117.4 117.4 117.5 117.6 117.6 117.7 117.7 117.8 117.9 117.9 118.0 118.0 118.1 118.2 118.2 118.3 118.3 118.4 118.5 118.5 118.6 118.6 118.7 118.8 118.8 118.9 118.9 119.0 119.1 119.1 119.2 119.2 119.3 119.4 119.4 119.5 119.5 119.6 119.7 119.7 119.8 119.8 119.9 120.0 120.0 120.1 120.1 120.2 120.3 120.3 120.4 120.4 120.5 120.6 120.6 120.7 120.7 120.8 120.9 120.9 121.0 121.0 121.1 121.2 121.2 121.3 121.3 121.4 121.5 121.5 121.6 121.6 121.7 121.8 121.8 121.9 121.9 122.0 122.1 122.1 122.2 122.2 122.3 122.4 122.4 122.5 122.5 122.6 122.7 122.7 122.8 122.8 122.9 123.0 123.0 123.1 123.1 123.2 123.3 123.3 123.4 123.4 123.5 123.6 123.6 123.7 123.7 123.8 123.9 123.9 124.0 124.0 124.1 124.2 124.2 124.3 124.3 124.4 124.5 124.5 124.6 124.6 124.7 124.8 124.8 124.9 124.9 125.0 125.1 125.1 125.2 125.2 125.3 125.4 125.4 125.5 125.5 125.6 125.7 125.7 125.8 125.8 125.9 126.0 126.0 126.1 126.2 126.2 126.3 126.3 126.4 126.5 126.5 126.6
114.7 114.8 114.9 114.9 115.0 115.0 115.1 115.2 115.2 115.3 115.3 115.4 115.5 115.5 115.6 115.6 115.7 115.8 115.8 115.9 115.9 116.0 116.1 116.1 116.2 116.2 116.3 116.4 116.4 116.5 116.5 116.6 116.7 116.7 116.8 116.8 116.9 117.0 117.0 117.1 117.1 117.2 117.3 117.3 117.4 117.4 117.5 117.6 117.6 117.7 117.7 117.8 117.9 117.9 118.0 118.0 118.1 118.2 118.2 118.3 118.3 118.4 118.5 118.5 118.6 118.6 118.7 118.8 118.8 118.9 118.9 119.0 119.1 119.1 119.2 119.2 119.3 119.4 119.4 119.5 119.5 119.6 119.7 119.7 119.8 119.8 119.9 120.0 120.0 120.1 120.1 120.2 120.3 120.3 120.4 120.4 120.5 120.6 120.6 120.7 120.7 120.8 120.9 120.9 121.0 121.0 121.1 121.2 121.2 121.3 121.3 121.4 121.5 121.5 121.6 121.6 121.7 121.8 121.8 121.9 121.9 122.0 122.1 122.1 122.2 122.2 122.3 122.4 122.4 122.5 122.5 122.6 122.7 122.7 122.8 122.8 122.9 123.0 123.0 123.1 123.1 123.2 123.3 123.3 123.4 123.4 123.5 123.6 123.6 123.7 123.7 123.8 123.9 123.9 124.0 124.0 124.1 124.2 124.2 124.3 124.3 124.4 124.5 124.5 124.6 124.6 124.7 124.8 124.8 124.9 124.9 125.0 125.1 125.1 125.2 125.2 125.3 125.4 125.4 125.5 125.5 125.6 125.7 125.7 125.8 125.8 125.9 126.0 126.0 126.1 126.1 126.2 126.3 126.3 126.4 126.4 126.5 126.6 126.6 126.7
114.8 114.9 115.0 115.0 115.1 115.2 115.2 115.3 115.3 115.4 115.5 115.5 115.6 115.6 115.7 115.8 115.8 115.9 115.9 116.0 116.0 116.1 116.2 116.2 116.3 116.3 116.4 116.5 116.5 116.6 116.7 116.7 116.8 116.8 116.9 117.0 117.0 117.1 117.1 117.2 117.2 117.3 117.4 117.4 117.5 117.5 117.6 117.7 117.7 117.8 117.8 117.9 118.0 118.0 118.1 118.2 118.2 118.3 118.3 118.4 118.5 118.5 118.6 118.6 118.7 118.8 118.8 118.9 118.9 119.0 119.0 119.1 119.2 119.2 119.3 119.3 119.4 119.5 119.5 119.6 119.7 119.7 119.8 119.8 119.9 120.0 120.0 120.1 120.1 120.2 120.2 120.3 120.4 120.4 120.5 120.5 120.6 120.7 120.7 120.8 120.8 120.9 121.0 121.0 121.1 121.2 121.2 121.3 121.3 121.4 121.5 121.5 121.6 121.6 121.7 121.8 121.8 121.9 121.9 122.0 122.0 122.1 122.2 122.2 122.3 122.3 122.4 122.5 122.5 122.6 122.7 122.7 122.8 122.8 122.9 123.0 123.0 123.1 123.1 123.2 123.2 123.3 123.4 123.4 123.5 123.5 123.6 123.7 123.7 123.8 123.8 123.9 124.0 124.0 124.1 124.2 124.2 124.3 124.3 124.4 124.5 124.5 124.6 124.6 124.7 124.8 124.8 124.9 124.9 125.0 125.0 125.1 125.2 125.2 125.3 125.3 125.4 125.5 125.5 125.6 125.7 125.7 125.8 125.8 125.9 126.0 126.0 126.1 126.1 126.2 126.2 126.3 126.4 126.4 126.5 126.5 126.6 126.7 126.7 126.8
115.0 115.0 115.1 115.1 115.2 115.3 115.3 115.4 115.4 115.5 115.6 115.6 115.7 115.7 115.8 115.9 115.9 116.0 116.0 116.1 116.2 116.2 116.3 116.3 116.4 116.5 116.5 116.6 116.6 116.7 116.8 116.8 116.9 116.9 117.0 117.1 117.1 117.2 117.2 117.3 117.4 117.4 117.5 117.5 117.6 117.7 117.7 117.8 117.8 117.9 118.0 118.0 118.1 118.1 118.2 118.3 118.3 118.4 118.4 118.5 118.6 118.6 118.7 118.7 118.8 118.9 118.9 119.0 119.0 119.1 119.2 119.2 119.3 119.3 119.4 119.5 119.5 119.6 119.6 119.7 119.8 119.8 119.9 119.9 120.0 120.1 120.1 120.2 120.2 120.3 120.4 120.4 120.5 120.5 120.6 120.7 120.7 120.8 120.8 120.9 121.0 121.0 121.1 121.1 121.2 121.3 121.3 121.4 121.4 121.5 121.6 121.6 121.7 121.7 121.8 121.9 121.9 122.0 122.0 122.1 122.2 122.2 122.3 122.3 122.4 122.5 122.5 122.6 122.6 122.7 122.8 122.8 122.9 122.9 123.0 123.1 123.1 123.2 123.2 123.3 123.4 123.4 123.5 123.5 123.6 123.7 123.7 123.8 123.8 123.9 124.0 124.0 124.1 124.1 124.2 124.3 124.3 124.4 124.4 124.5 124.6 124.6 124.7 124.7 124.8 124.9 124.9 125.0 125.0 125.1 125.2 125.2 125.3 125.3 125.4 125.5 125.5 125.6 125.6 125.7 125.8 125.8 125.9 125.9 126.0 126.1 126.1 126.2 126.2 126.3 126.4 126.4 126.5 126.5 126.6 126.7 126.7 126.8 126.8 126.9
115.1 115.1 115.2 115.3 115.3 115.4 115.4 115.5 115.6 115.6 115.7 115.7 115.8 115.9 115.9 116.0 116.0 116.1 116.2 116.2 116.3 116.3 116.4 116.5 116.5 116.6 116.6 116.7 116.8 116.8 116.9 116.9 117.0 117.1 117.1 117.2 117.2 117.3 117.4 117.4 117.5 117.5 117.6 117.7 117.7 117.8 117.8 117.9 118.0 118.0 118.1 118.1 118.2 118.3 118.3 118.4 118.4 118.5 118.6 118.6 118.7 118.7 118.8 118.9 118.9 119.0 119.0 119.1 119.2 119.2 119.3 119.3 119.4 119.5 119.5 119.6 119.6 119.7 119.8 119.8 119.9 119.9 120.0 120.1 120.1 120.2 120.2 120.3 120.4 120.4 120.5 120.5 120.6 120.7 120.7 120.8 120.8 120.9 121.0 121.0 121.1 121.1 121.2 121.3 121.3 121.4 121.4 121.5 121.6 121.6 121.7 121.7 121.8 121.9 121.9 122.0 122.0 122.1 122.2 122.2 122.3 122.3 122.4 122.5 122.5 122.6 122.6 122.7 122.8 122.8 122.9 122.9 123.0 123.1 123.1 123.2 123.2 123.3 123.4 123.4 123.5 123.5 123.6 123.7 123.7 123.8 123.8 123.9 124.0 124.0 124.1 124.1 124.2 124.3 124.3 124.4 124.4 124.5 124.6 124.6 124.7 124.7 124.8 124.9 124.9 125.0 125.0 125.1 125.2 125.2 125.3 125.3 125.4 125.5 125.5 125.6 125.6 125.7 125.8 125.8 125.9 125.9 126.0 126.1 126.1 126.2 126.2 126.3 126.4 126.4 126.5 126.5 126.6 126.7 126.7 126.8 126.8 126.9 127.0 127.0
115.2 115.2 115.3 115.4 115.4 115.5 115.5 115.6 115.7 115.7 115.8 115.8 115.9 116.0 116.0 116.1 116.1 116.2 116.3 116.3 116.4 116.4 116.5 116.6 116.6 116.7 116.7 116.8 116.9 116.9 117.0 117.0 117.1 117.2 117.2 117.3 117.3 117.4 117.5 117.5 117.6 117.6 117.7 117.8 117.8 117.9 117.9 118.0 118.1 118.1 118.2 118.2 118.3 118.4 118.4 118.5 118.5 118.6 118.7 118.7 118.8 118.8 118.9 119.0 119.0 119.1 119.1 119.2 119.3 119.3 119.4 119.4 119.5 119.6 119.6 119.7 119.7 119.8 119.9 119.9 120.0 120.0 120.1 120.2 120.2 120.3 120.3 120.4 120.5 120.5 120.6 120.6 120.7 120.8 120.8 120.9 120.9 121.0 121.1 121.1 121.2 121.2 121.3 121.4 121.4 121.5 121.5 121.6 121.7 121.7 121.8 121.8 121.9 122.0 122.0 122.1 122.1 122.2 122.3 122.3 122.4 122.4 122.5 122.6 122.6 122.7 122.7 122.8 122.9 122.9 123.0 123.0 123.1 123.2 123.2 123.3 123.3 123.4 123.5 123.5 123.6 123.6 123.7 123.8 123.8 123.9 123.9 124.0 124.1 124.1 124.2 124.2 124.3 124.4 124.4 124.5 124.5 124.6 124.7 124.7 124.8 124.8 124.9 125.0 125.0 125.1 125.1 125.2 125.3 125.3 125.4 125.4 125.5 125.6 125.6 125.7 125.7 125.8 125.9 125.9 126.0 126.0 126.1 126.2 126.2 126.3 126.3 126.4 126.5 126.5 126.6 126.6 126.7 126.8 126.8 126.9 126.9 127.0 127.1 127.1
115.3 115.4 115.4 115.5 115.5 115.6 115.7 115.7 115.8 115.8 115.9 116.0 116.0 116.1 116.1 116.2 116.2 116.3 116.4 116.4 116.5 116.5 116.6 116.7 116.7 116.8 116.9 116.9 117.0 117.0 117.1 117.2 117.2 117.3 117.3 117.4 117.5 117.5 117.6 117.6 117.7 117.8 117.8 117.9 117.9 118.0 118.0 118.1 118.2 118.2 118.3 118.4 118.4 118.5 118.5 118.6 118.7 118.7 118.8 118.8 118.9 119.0 119.0 119.1 119.1 119.2 119.2 119.3 119.4 119.4 119.5 119.5 119.6 119.7 119.7 119.8 119.9 119.9 120.0 120.0 120.1 120.2 120.2 120.3 120.3 120.4 120.5 120.5 120.6 120.6 120.7 120.8 120.8 120.9 120.9 121.0 121.0 121.1 121.2 121.2 121.3 121.4 121.4 121.5 121.5 121.6 121.7 121.7 121.8 121.8 121.9 122.0 122.0 122.1 122.1 122.2 122.2 122.3 122.4 122.4 122.5 122.5 122.6 122.7 122.7 122.8 122.9 122.9 123.0 123.0 123.1 123.2 123.2 123.3 123.3 123.4 123.5 123.5 123.6 123.6 123.7 123.8 123.8 123.9 123.9 124.0 124.0 124.1 124.2 124.2 124.3 124.4 124.4 124.5 124.5 124.6 124.7 124.7 124.8 124.8 124.9 125.0 125.0 125.1 125.1 125.2 125.2 125.3 125.4 125.4 125.5 125.5 125.6 125.7 125.7 125.8 125.9 125.9 126.0 126.0 126.1 126.2 126.2 126.3 126.3 126.4 126.5 126.5 126.6 126.6 126.7 126.8 126.8 126.9 126.9 127.0 127.0 127.1 127.2 127.2
115.4 115.5 115.5 115.6 115.6 115.7 115.8 115.8 115.9 115.9 116.0 116.1 116.1 116.2 116.2 116.3 116.4 116.4 116.5 116.5 116.6 116.7 116.7 116.8 116.8 116.9 117.0 117.0 117.1 117.1 117.2 117.3 117.3 117.4 117.4 117.5 117.6 117.6 117.7 117.7 117.8 117.9 117.9 118.0 118.0 118.1 118.2 118.2 118.3 118.3 118.4 118.5 118.5 118.6 118.6 118.7 118.8 118.8 118.9 118.9 119.0 119.1 119.1 119.2 119.2 119.3 119.4 119.4 119.5 119.5 119.6 119.7 119.7 119.8 119.8 119.9 120.0 120.0 120.1 120.1 120.2 120.3 120.3 120.4 120.4 120.5 120.6 120.6 120.7 120.7 120.8 120.9 120.9 121.0 121.0 121.1 121.2 121.2 121.3 121.3 121.4 121.5 121.5 121.6 121.6 121.7 121.8 121.8 121.9 121.9 122.0 122.1 122.1 122.2 122.2 122.3 122.4 122.4 122.5 122.5 122.6 122.7 122.7 122.8 122.8 122.9 123.0 123.0 123.1 123.1 123.2 123.3 123.3 123.4 123.4 123.5 123.6 123.6 123.7 123.7 123.8 123.9 123.9 124.0 124.0 124.1 124.2 124.2 124.3 124.3 124.4 124.5 124.5 124.6 124.6 124.7 124.8 124.8 124.9 124.9 125.0 125.1 125.1 125.2 125.2 125.3 125.4 125.4 125.5 125.5 125.6 125.7 125.7 125.8 125.8 125.9 126.0 126.0 126.1 126.1 126.2 126.3 126.3 126.4 126.4 126.5 126.6 126.6 126.7 126.7 126.8 126.9 126.9 127.0 127.0 127.1 127.2 127.2 127.3 127.3
115.5 115.6 115.6 115.7 115.8 115.8 115.9 115.9 116.0 116.0 116.1 116.2 116.2 116.3 116.3 116.4 116.5 116.5 116.6 116.6 116.7 116.8 116.8 116.9 117.0 117.0 117.1 117.1 117.2 117.2 117.3 117.4 117.4 117.5 117.5 117.6 117.7 117.7 117.8 117.8 117.9 118.0 118.0 118.1 118.1 118.2 118.3 118.3 118.4 118.5 118.5 118.6 118.6 118.7 118.8 118.8 118.9 118.9 119.0 119.0 119.1 119.2 119.2 119.3 119.3 119.4 119.5 119.5 119.6 119.6 119.7 119.8 119.8 119.9 120.0 120.0 120.1 120.1 120.2 120.2 120.3 120.4 120.4 120.5 120.5 120.6 120.7 120.7 120.8 120.8 120.9 121.0 121.0 121.1 121.1 121.2 121.3 121.3 121.4 121.5 121.5 121.6 121.6 121.7 121.8 121.8 121.9 121.9 122.0 122.0 122.1 122.2 122.2 122.3 122.3 122.4 122.5 122.5 122.6 122.6 122.7 122.8 122.8 122.9 123.0 123.0 123.1 123.1 123.2 123.2 123.3 123.4 123.4 123.5 123.5 123.6 123.7 123.7 123.8 123.8 123.9 124.0 124.0 124.1 124.1 124.2 124.3 124.3 124.4 124.5 124.5 124.6 124.6 124.7 124.8 124.8 124.9 124.9 125.0 125.0 125.1 125.2 125.2 125.3 125.3 125.4 125.5 125.5 125.6 125.6 125.7 125.8 125.8 125.9 126.0 126.0 126.1 126.1 126.2 126.2 126.3 126.4 126.4 126.5 126.5 126.6 126.7 126.7 126.8 126.8 126.9 127.0 127.0 127.1 127.1 127.2 127.3 127.3 127.4 127.5
115.6 115.7 115.7 115.8 115.9 115.9 116.0 116.0 116.1 116.2 116.2 116.3 116.3 116.4 116.5 116.5 116.6 116.6 116.7 116.8 116.8 116.9 116.9 117.0 117.1 117.1 117.2 117.2 117.3 117.4 117.4 117.5 117.5 117.6 117.7 117.7 117.8 117.8 117.9 118.0 118.0 118.1 118.1 118.2 118.3 118.3 118.4 118.4 118.5 118.6 118.6 118.7 118.7 118.8 118.9 118.9 119.0 119.0 119.1 119.2 119.2 119.3 119.3 119.4 119.5 119.5 119.6 119.6 119.7 119.8 119.8 119.9 119.9 120.0 120.1 120.1 120.2 120.2 120.3 120.4 120.4 120.5 120.5 120.6 120.7 120.7 120.8 120.8 120.9 121.0 121.0 121.1 121.1 121.2 121.3 121.3 121.4 121.4 121.5 121.6 121.6 121.7 121.7 121.8 121.9 121.9 122.0 122.0 122.1 122.2 122.2 122.3 122.3 122.4 122.5 122.5 122.6 122.6 122.7 122.8 122.8 122.9 122.9 123.0 123.1 123.1 123.2 123.2 123.3 123.4 123.4 123.5 123.5 123.6 123.7 123.7 123.8 123.8 123.9 124.0 124.0 124.1 124.1 124.2 124.3 124.3 124.4 124.4 124.5 124.6 124.6 124.7 124.7 124.8 124.9 124.9 125.0 125.0 125.1 125.2 125.2 125.3 125.3 125.4 125.5 125.5 125.6 125.6 125.7 125.8 125.8 125.9 125.9 126.0 126.1 126.1 126.2 126.2 126.3 126.4 126.4 126.5 126.5 126.6 126.7 126.7 126.8 126.8 126.9 127.0 127.0 127.1 127.1 127.2 127.3 127.3 127.4 127.4 127.5 127.6
115.7 115.8 115.8 115.9 116.0 116.0 116.1 116.1 116.2 116.3 116.3 116.4 116.4 116.5 116.6 116.6 116.7 116.7 116.8 116.9 116.9 117.0 117.0 117.1 117.2 117.2 117.3 117.3 117.4 117.5 117.5 117.6 117.6 117.7 117.8 117.8 117.9 117.9 118.0 118.1 118.1 118.2 118.2 118.3 118.4 118.4 118.5 118.5 118.6 118.7 118.7 118.8 118.8 118.9 119.0 119.0 119.1 119.1 119.2 119.3 119.3 119.4 119.4 119.5 119.6 119.6 119.7 119.7 119.8 119.9 119.9 120.0 120.0 120.1 120.2 120.2 120.3 120.3 120.4 120.5 120.5 120.6 120.6 120.7 120.8 120.8 120.9 120.9 121.0 121.1 121.1 121.2 121.2 121.3 121.4 121.4 121.5 121.5 121.6 121.7 121.7 121.8 121.8 121.9 122.0 122.0 122.1 122.1 122.2 122.3 122.3 122.4 122.4 122.5 122.6 122.6 122.7 122.7 122.8 122.9 122.9 123.0 123.0 123.1 123.2 123.2 123.3 123.3 123.4 123.5 123.5 123.6 123.6 123.7 123.8 123.8 123.9 123.9 124.0 124.1 124.1 124.2 124.2 124.3 124.4 124.4 124.5 124.5 124.6 124.7 124.7 124.8 124.8 124.9 125.0 125.0 125.1 125.1 125.2 125.3 125.3 125.4 125.4 125.5 125.6 125.6 125.7 125.7 125.8 125.9 125.9 126.0 126.0 126.1 126.2 126.2 126.3 126.3 126.4 126.5 126.5 126.6 126.6 126.7 126.8 126.8 126.9 126.9 127.0 127.1 127.1 127.2 127.2 127.3 127.4 127.4 127.5 127.6 127.6 127.7
115.8 115.9 116.0 116.0 116.1 116.1 116.2 116.3 116.3 116.4 116.4 116.5 116.6 116.6 116.7 116.7 116.8 116.9 116.9 117.0 117.0 117.1 117.2 117.2 117.3 117.3 117.4 117.5 117.5 117.6 117.6 117.7 117.8 117.8 117.9 117.9 118.0 118.1 118.1 118.2 118.2 118.3 118.4 118.4 118.5 118.5 118.6 118.7 118.7 118.8 118.8 118.9 119.0 119.0 119.1 119.1 119.2 119.3 119.3 119.4 119.4 119.5 119.6 119.6 119.7 119.7 119.8 119.9 119.9 120.0 120.0 120.1 120.2 120.2 120.3 120.3 120.4 120.5 120.5 120.6 120.6 120.7 120.8 120.8 120.9 120.9 121.0 121.1 121.1 121.2 121.2 121.3 121.4 121.4 121.5 121.5 121.6 121.7 121.7 121.8 121.8 121.9 122.0 122.0 122.1 122.1 122.2 122.3 122.3 122.4 122.4 122.5 122.6 122.6 122.7 122.7 122.8 122.9 122.9 123.0 123.0 123.1 123.2 123.2 123.3 123.3 123.4 123.5 123.5 123.6 123.6 123.7 123.8 123.8 123.9 123.9 124.0 124.1 124.1 124.2 124.2 124.3 124.4 124.4 124.5 124.5 124.6 124.7 124.7 124.8 124.8 124.9 125.0 125.0 125.1 125.1 125.2 125.3 125.3 125.4 125.4 125.5 125.6 125.6 125.7 125.7 125.8 125.9 125.9 126.0 126.0 126.1 126.2 126.2 126.3 126.3 126.4 126.5 126.5 126.6 126.6 126.7 126.8 126.8 126.9 126.9 127.0 127.1 127.1 127.2 127.2 127.3 127.4 127.4 127.5 127.5 127.6 127.7 127.7 127.8
116.0 116.0 116.1 116.1 116.2 116.2 116.3 116.4 116.4 116.5 116.5 116.6 116.7 116.7 116.8 116.8 116.9 117.0 117.0 117.1 117.2 117.2 117.3 117.3 117.4 117.5 117.5 117.6 117.6 117.7 117.8 117.8 117.9 117.9 118.0 118.0 118.1 118.2 118.2 118.3 118.3 118.4 118.5 118.5 118.6 118.7 118.7 118.8 118.8 118.9 119.0 119.0 119.1 119.1 119.2 119.2 119.3 119.4 119.4 119.5 119.5 119.6 119.7 119.7 119.8 119.8 119.9 120.0 120.0 120.1 120.2 120.2 120.3 120.3 120.4 120.5 120.5 120.6 120.6 120.7 120.8 120.8 120.9 120.9 121.0 121.0 121.1 121.2 121.2 121.3 121.3 121.4 121.5 121.5 121.6 121.7 121.7 121.8 121.8 121.9 122.0 122.0 122.1 122.1 122.2 122.2 122.3 122.4 122.4 122.5 122.5 122.6 122.7 122.7 122.8 122.8 122.9 123.0 123.0 123.1 123.2 123.2 123.3 123.3 123.4 123.5 123.5 123.6 123.6 123.7 123.8 123.8 123.9 123.9 124.0 124.0 124.1 124.2 124.2 124.3 124.3 124.4 124.5 124.5 124.6 124.7 124.7 124.8 124.8 124.9 125.0 125.0 125.1 125.1 125.2 125.2 125.3 125.4 125.4 125.5 125.5 125.6 125.7 125.7 125.8 125.8 125.9 126.0 126.0 126.1 126.2 126.2 126.3 126.3 126.4 126.5 126.5 126.6 126.6 126.7 126.8 126.8 126.9 126.9 127.0 127.0 127.1 127.2 127.2 127.3 127.3 127.4 127.5 127.5 127.6 127.7 127.7 127.8 127.8 127.9
116.1 116.1 116.2 116.2 116.3 116.4 116.4 116.5 116.5 116.6 116.7 116.7 116.8 116.8 116.9 117.0 117.0 117.1 117.1 117.2 117.3 117.3 117.4 117.4 117.5 117.6 117.6 117.7 117.7 117.8 117.9 117.9 118.0 118.0 118.1 118.2 118.2 118.3 118.3 118.4 118.5 118.5 118.6 118.6 118.7 118.8 118.8 118.9 118.9 119.0 119.1 119.1 119.2 119.2 119.3 119.4 119.4 119.5 119.5 119.6 119.7 119.7 119.8 119.8 119.9 120.0 120.0 120.1 120.1 120.2 120.3 120.3 120.4 120.4 120.5 120.6 120.6 120.7 120.7 120.8 120.9 120.9 121.0 121.0 121.1 121.2 121.2 121.3 121.3 121.4 121.5 121.5 121.6 121.6 121.7 121.8 121.8 121.9 121.9 122.0 122.1 122.1 122.2 122.2 122.3 122.4 122.4 122.5 122.5 122.6 122.7 122.7 122.8 122.8 122.9 123.0 123.0 123.1 123.1 123.2 123.3 123.3 123.4 123.4 123.5 123.6 123.6 123.7 123.7 123.8 123.9 123.9 124.0 124.0 124.1 124.2 124.2 124.3 124.3 124.4 124.5 124.5 124.6 124.6 124.7 124.8 124.8 124.9 124.9 125.0 125.1 125.1 125.2 125.2 125.3 125.4 125.4 125.5 125.5 125.6 125.7 125.7 125.8 125.8 125.9 126.0 126.0 126.1 126.1 126.2 126.3 126.3 126.4 126.4 126.5 126.6 126.6 126.7 126.7 126.8 126.9 126.9 127.0 127.0 127.1 127.2 127.2 127.3 127.3 127.4 127.5 127.5 127.6 127.6 127.7 127.8 127.8 127.9 127.9 128.0
116.2 116.2 116.3 116.4 116.4 116.5 116.5 116.6 116.7 116.7 116.8 116.8 116.9 117.0 117.0 117.1 117.1 117.2 117.3 117.3 117.4 117.4 117.5 117.6 117.6 117.7 117.7 117.8 117.9 117.9 118.0 118.0 118.1 118.2 118.2 118.3 118.3 118.4 118.5 118.5 118.6 118.6 118.7 118.8 118.8 118.9 118.9 119.0 119.1 119.1 119.2 119.2 119.3 119.4 119.4 119.5 119.5 119.6 119.7 119.7 119.8 119.8 119.9 120.0 120.0 120.1 120.1 120.2 120.3 120.3 120.4 120.4 120.5 120.6 120.6 120.7 120.7 120.8 120.9 120.9 121.0 121.0 121.1 121.2 121.2 121.3 121.3 121.4 121.5 121.5 121.6 121.6 121.7 121.8 121.8 121.9 121.9 122.0 122.1 122.1 122.2 122.2 122.3 122.4 122.4 122.5 122.5 122.6 122.7 122.7 122.8 122.8 122.9 123.0 123.0 123.1 123.1 123.2 123.3 123.3 123.4 123.4 123.5 123.6 123.6 123.7 123.7 123.8 123.9 123.9 124.0 124.0 124.1 124.2 124.2 124.3 124.3 124.4 124.5 124.5 124.6 124.6 124.7 124.8 124.8 124.9 124.9 125.0 125.1 125.1 125.2 125.2 125.3 125.4 125.4 125.5 125.5 125.6 125.7 125.7 125.8 125.8 125.9 126.0 126.0 126.1 126.1 126.2 126.3 126.3 126.4 126.4 126.5 126.6 126.6 126.7 126.7 126.8 126.9 126.9 127.0 127.0 127.1 127.2 127.2 127.3 127.3 127.4 127.5 127.5 127.6 127.6 127.7 127.8 127.8 127.9 127.9 128.0 128.1 128.1
116.3 116.3 116.4 116.5 116.5 116.6 116.6 116.7 116.8 116.8 116.9 116.9 117.0 117.1 117.1 117.2 117.2 117.3 117.4 117.4 117.5 117.5 117.6 117.7 117.7 117.8 117.8 117.9 118.0 118.0 118.1 118.1 118.2 118.3 118.3 118.4 118.4 118.5 118.6 118.6 118.7 118.7 118.8 118.9 118.9 119.0 119.0 119.1 119.2 119.2 119.3 119.3 119.4 119.5 119.5 119.6 119.6 119.7 119.8 119.8 119.9 119.9 120.0 120.1 120.1 120.2 120.2 120.3 120.4 120.4 120.5 120.5 120.6 120.7 120.7 120.8 120.8 120.9 121.0 121.0 121.1 121.1 121.2 121.3 121.3 121.4 121.4 121.5 121.6 121.6 121.7 121.7 121.8 121.9 121.9 122.0 122.0 122.1 122.2 122.2 122.3 122.3 122.4 122.5 122.5 122.6 122.6 122.7 122.8 122.8 122.9 122.9 123.0 123.1 123.1 123.2 123.2 123.3 123.4 123.4 123.5 123.5 123.6 123.7 123.7 123.8 123.8 123.9 124.0 124.0 124.1 124.1 124.2 124.3 124.3 124.4 124.4 124.5 124.6 124.6 124.7 124.7 124.8 124.9 124.9 125.0 125.0 125.1 125.2 125.2 125.3 125.3 125.4 125.5 125.5 125.6 125.6 125.7 125.8 125.8 125.9 125.9 126.0 126.1 126.1 126.2 126.2 126.3 126.4 126.4 126.5 126.5 126.6 126.7 126.7 126.8 126.8 126.9 127.0 127.0 127.1 127.1 127.2 127.3 127.3 127.4 127.4 127.5 127.6 127.6 127.7 127.7 127.8 127.9 127.9 128.0 128.0 128.1 128.2 128.2
